ply
format ascii 1.0
element vertex 1207
property float x
property float y
property float z
property uchar red
property uchar green
property uchar blue
end_header
-0.326434 0.184331 -0.971615 22 232 180
0.613172 0.019124 0.751401 213 41 180
0.005520 0.257538 1.025738 244 10 180
0.887659 -0.236043 0.265330 159 95 180
0.519975 -0.628925 -0.689883 53 201 180
1.035907 0.180525 -0.260844 101 153 180
0.144514 -0.173393 1.029609 244 10 180
0.383976 -0.472137 0.770356 215 39 180
0.001370 0.619888 -0.696128 52 202 180
0.940406 -0.284517 -0.277337 99 155 180
0.373619 -0.480277 0.773955 216 38 180
0.361208 0.788979 0.560358 192 62 180
0.097449 0.079212 0.954747 236 18 180
-0.217409 -0.731188 -0.560749 67 187 180
0.528430 -0.431419 -0.664696 56 198 180
0.399142 -0.335152 -0.903958 29 225 180
-0.183119 -0.012562 -0.927160 27 227 180
0.284345 0.945591 -0.131044 115 139 180
0.638997 -0.087470 -0.759689 45 209 180
0.075253 0.911846 0.524367 188 66 180
0.372059 0.385927 0.632285 200 54 180
0.527839 0.014754 0.813037 220 34 180
0.027310 0.165003 0.906573 230 24 180
0.668109 -0.814833 0.051293 135 119 180
0.644903 0.719430 0.207207 153 101 180
-0.953391 -0.413624 0.164441 148 106 180
-0.618180 -0.587170 0.584436 194 60 180
-0.729814 -0.526971 -0.142566 114 140 180
0.001603 -0.036440 1.051648 246 8 180
0.326766 -0.176910 -0.861262 34 220 180
0.906585 -0.219911 -0.466145 78 176 180
-0.635559 -0.075288 0.706969 208 46 180
-0.196016 1.001787 -0.255304 101 153 180
0.279626 0.325580 0.884171 228 26 180
0.714305 -0.598324 -0.578042 65 189 180
0.368031 -0.012238 -0.920832 27 227 180
-0.778008 -0.396456 -0.501683 74 180 180
0.837882 0.239215 0.541700 190 64 180
0.013229 0.003537 -0.915115 28 226 180
0.674949 -0.306366 0.618380 198 56 180
-0.469248 -0.401819 -0.875856 32 222 180
-0.870778 -0.403087 -0.420860 83 171 180
-0.348859 0.883216 0.381388 172 82 180
-0.422857 -0.196800 -0.905978 29 225 180
-0.924950 -0.409602 0.194816 151 103 180
0.362173 0.149564 0.837451 223 31 180
0.754110 0.168836 -0.560716 67 187 180
-0.089898 -0.112722 1.039429 245 9 180
0.743187 0.374441 0.591587 195 59 180
0.270807 0.940599 -0.253056 101 153 180
0.819525 0.047829 0.566887 193 61 180
0.691062 0.029990 -0.727777 49 205 180
-0.458034 -0.803654 0.356049 169 85 180
-0.041256 -0.307129 -1.001709 18 236 180
0.842143 -0.481785 0.308169 164 90 180
0.453219 -0.581924 0.660801 203 51 180
-0.688751 -0.730561 0.200065 152 102 180
-0.751361 0.684620 0.117372 143 111 180
0.166740 -0.907675 0.386254 172 82 180
0.078806 0.966434 -0.398201 85 169 180
0.465991 0.710943 -0.583497 65 189 180
0.109590 0.052627 -0.984530 20 234 180
0.561070 0.213569 -0.732398 48 206 180
0.164382 0.251010 -1.007910 18 236 180
-0.149344 -0.410559 -0.980167 21 233 180
-0.923053 -0.166907 -0.038578 125 129 180
-0.277193 -0.496616 0.829114 222 32 180
-0.069310 -0.715019 -0.592081 64 190 180
-0.459118 -0.835373 0.075868 138 116 180
-0.051343 -0.083329 -0.940707 25 229 180
0.114101 -0.237105 0.969382 237 17 180
0.583766 0.643069 -0.413852 84 170 180
0.471335 -0.847545 0.364698 170 84 180
-0.134211 -0.751978 -0.492505 75 179 180
0.074592 0.398800 -0.902864 29 225 180
-0.215036 -0.233206 -0.916691 28 226 180
0.024397 -0.586391 0.681736 205 49 180
-0.971767 -0.135805 0.042363 134 120 180
-0.558220 0.343787 0.708734 208 46 180
-0.218246 0.451209 0.793118 218 36 180
-0.726323 -0.703831 0.097567 140 114 180
-0.391704 0.439646 -0.789400 42 212 180
0.880745 0.276650 -0.316537 94 160 180
-0.519282 0.693571 0.652668 202 52 180
0.197047 -0.940939 0.239505 156 98 180
0.187026 0.523022 0.890682 229 25 180
-0.132859 -0.299445 0.922924 232 22 180
0.463076 0.914501 -0.111327 117 137 180
-0.047107 0.263297 0.965936 237 17 180
-0.350292 -0.219322 0.903397 230 24 180
0.388974 0.558783 0.560796 192 62 180
0.840411 -0.510354 0.266320 159 95 180
0.221897 0.047653 -0.902253 29 225 180
-0.048729 -0.041379 1.053222 247 7 180
-0.265335 0.150828 -1.048154 13 241 180
-0.516333 -0.920891 0.208684 153 101 180
0.176870 -0.219898 0.914183 231 23 180
-0.678375 -0.318060 0.733386 211 43 180
-0.021343 0.980003 -0.371716 88 166 180
-0.160861 0.027197 -0.976403 21 233 180
-0.915240 0.332498 -0.048337 124 130 180
0.078983 -0.687461 -0.756432 46 208 180
-0.057501 -0.003650 0.933742 233 21 180
0.111422 0.058264 -0.971215 22 232 180
0.242091 0.022956 -1.024966 16 238 180
-0.594903 -0.585367 0.603786 197 57 180
1.053296 -0.109019 0.104708 141 113 180
-0.301811 -0.525500 -0.772464 44 210 180
-0.841343 0.394402 0.421230 176 78 180
0.110912 -0.820853 0.629621 200 54 180
0.605116 -0.590924 0.538036 189 65 180
1.000642 0.143002 0.045753 135 119 180
-0.318567 -0.868700 0.343804 168 86 180
0.262612 -0.019906 -0.964958 22 232 180
0.842089 0.089029 -0.485245 76 178 180
0.081846 -0.255194 -0.824174 38 216 180
0.117672 -0.966851 -0.356514 90 164 180
0.478893 -0.762522 -0.600567 63 191 180
-0.154208 0.187066 0.945903 235 19 180
0.797211 0.533410 0.103437 141 113 180
0.033591 0.039582 -1.019977 16 238 180
0.252949 0.985560 -0.177670 110 144 180
0.752393 -0.441119 -0.604692 62 192 180
0.375167 0.871502 0.357853 169 85 180
0.410339 -0.176204 -0.945332 25 229 180
0.303751 -0.778279 -0.446049 80 174 180
-0.853093 0.388337 0.506364 186 68 180
-0.652890 -0.358920 0.627892 199 55 180
-0.955732 0.121944 0.214185 153 101 180
-0.927272 -0.186172 -0.155224 112 142 180
0.277903 -0.337217 0.959730 236 18 180
-0.047348 0.570537 -0.889046 31 223 180
0.476875 0.532898 -0.800634 41 213 180
-0.963100 -0.280654 0.023044 132 122 180
-0.042086 0.662696 0.682303 205 49 180
0.146365 0.051705 -0.982876 20 234 180
0.035207 -0.077390 1.022378 243 11 180
0.406575 -0.877336 -0.219037 105 149 180
0.234049 0.056806 -0.930437 26 228 180
-0.993712 -0.067278 0.307714 164 90 180
0.255047 0.121070 -0.968479 22 232 180
0.066467 -0.720749 -0.745592 47 207 180
-0.472738 0.403696 -0.794262 41 213 180
-0.725986 -0.561579 -0.527293 71 183 180
-0.683387 -0.067182 0.687319 206 48 180
0.023640 0.038914 -0.995668 19 235 180
-0.005299 0.070238 0.975134 238 16 180
-0.705330 0.056405 0.697143 207 47 180
0.069655 0.048487 0.965238 237 17 180
0.108459 0.075313 -1.013065 17 237 180
-0.103322 -0.018409 -0.946062 25 229 180
-0.034341 0.103587 -0.948489 24 230 180
-0.386729 -0.640616 -0.652637 57 197 180
-0.523927 0.823187 0.116088 142 112 180
-0.135828 -0.923968 0.459789 181 73 180
-0.107180 -0.608739 0.904366 230 24 180
-0.430789 -0.085003 -0.854346 35 219 180
-0.791060 -0.343697 0.343959 168 86 180
0.028930 -0.036743 0.980368 238 16 180
-0.956141 0.247013 0.076904 138 116 180
-0.002458 0.000366 -1.044660 14 240 180
-0.873012 -0.445835 0.004443 130 124 180
0.251031 0.755394 0.498934 185 69 180
0.376865 -0.877590 -0.489235 75 179 180
0.584013 0.328709 0.773012 215 39 180
-0.100914 -0.420191 -0.846538 36 218 180
0.290786 -0.318605 0.816633 220 34 180
0.840280 0.304548 -0.433230 81 173 180
0.210739 0.118671 -0.892710 30 224 180
0.041026 0.768756 -0.580640 65 189 180
0.042458 0.369251 -0.911348 28 226 180
-0.988928 -0.078983 0.082854 139 115 180
-0.076145 0.642239 0.611805 198 56 180
0.039311 0.136670 -0.990995 20 234 180
0.325205 -0.047999 -0.962140 23 231 180
-0.527395 -0.631853 0.515851 187 67 180
0.209333 0.320241 -0.891216 31 223 180
1.054975 -0.275906 -0.029829 126 128 180
-0.942706 -0.047749 -0.133542 115 139 180
0.529393 -0.861343 0.146316 146 108 180
0.254298 0.131535 0.987057 239 15 180
0.767099 0.020519 0.668428 204 50 180
-0.395738 -0.810314 -0.256317 101 153 180
-0.893616 -0.346360 -0.354601 90 164 180
-0.320440 0.248323 0.923538 232 22 180
-0.588669 -0.731230 -0.463720 78 176 180
0.784860 0.279069 0.499005 185 69 180
0.915871 0.152126 0.263783 159 95 180
0.990876 0.596967 -0.004100 129 125 180
-0.492133 -0.848637 0.238309 156 98 180
-0.161024 -0.432346 -0.842473 36 218 180
0.333146 0.614348 0.614988 198 56 180
0.164319 0.244845 0.916890 231 23 180
0.022287 0.033127 0.961989 236 18 180
0.952800 -0.347892 -0.231622 104 150 180
0.010178 -0.149853 0.943653 234 20 180
-0.540045 0.726867 0.264538 159 95 180
0.040745 0.749503 0.744949 212 42 180
-0.390845 -0.206724 0.905190 230 24 180
0.115497 0.013685 0.995042 240 14 180
0.362626 0.089968 -0.962025 23 231 180
-0.373318 -0.370720 -0.845861 36 218 180
-0.530666 -0.809091 -0.176216 110 144 180
0.939985 0.161476 -0.188616 109 145 180
-0.483384 -0.771839 0.405592 175 79 180
-0.108879 -0.039126 0.990359 240 14 180
0.009483 0.351356 0.993879 240 14 180
0.947700 0.000196 -0.014299 128 126 180
-0.078860 -0.887356 0.461014 181 73 180
0.353336 -0.829869 0.247642 157 97 180
-0.240329 0.981249 -0.075753 121 133 180
0.410045 0.802420 -0.015050 128 126 180
0.581188 0.100595 -0.697552 52 202 180
0.556167 -0.889216 0.092219 140 114 180
-0.552073 0.091681 -0.866779 33 221 180
0.584857 0.660982 -0.537869 70 184 180
-0.206129 -0.089818 0.985093 239 15 180
0.531062 -0.715129 -0.447303 80 174 180
-0.902167 -0.290295 -0.159217 112 142 180
-0.305248 0.569069 -0.790635 42 212 180
-0.427353 0.335430 -0.849920 35 219 180
-0.713130 0.046510 -0.601038 63 191 180
0.045459 0.340395 -0.932640 26 228 180
-0.286802 -0.816614 0.481654 183 71 180
0.562968 0.841229 -0.192207 108 146 180
0.255503 -0.547445 -0.836282 37 217 180
-0.548624 -0.536411 0.681338 205 49 180
0.214504 0.860721 0.509817 186 68 180
0.211854 0.876505 -0.341063 92 162 180
0.194452 -0.143811 0.982187 239 15 180
0.276440 0.934347 0.377646 172 82 180
0.274566 -0.922914 -0.293708 97 157 180
0.620051 -0.142069 0.767279 215 39 180
-0.206921 -0.244964 1.042547 245 9 180
0.624073 -0.512753 0.651719 202 52 180
-0.609626 0.682108 0.468278 182 72 180
0.258976 0.922810 -0.179408 110 144 180
-0.332972 0.791043 -0.514334 72 182 180
0.484490 0.212112 -0.895874 30 224 180
0.047461 0.263914 1.015594 242 12 180
0.756157 -0.018448 0.711712 209 45 180
0.822375 -0.291703 -0.396949 86 168 180
0.857989 0.352657 -0.420387 83 171 180
-0.534753 0.525041 0.533406 189 65 180
0.791743 0.468051 -0.331586 93 161 180
0.373581 0.061126 -0.900382 30 224 180
0.433193 -0.801178 -0.287894 98 156 180
-0.516633 -0.828307 0.237924 156 98 180
-0.668483 -0.489667 -0.479016 76 178 180
-0.007283 -0.030138 0.913909 231 23 180
-1.013832 0.103811 0.148851 146 108 180
-0.046170 -0.365144 -0.905467 29 225 180
0.393445 -0.353315 -0.813858 39 215 180
-0.442396 0.598692 0.601915 196 58 180
0.371929 0.085697 -0.930706 26 228 180
0.537566 0.204684 -0.729073 49 205 180
0.532131 0.645472 0.569293 193 61 180
-0.018114 -0.003712 0.994540 240 14 180
-0.914657 -0.388137 0.128752 144 110 180
0.445146 -0.644476 0.585819 195 59 180
-0.447896 -0.894462 0.291728 162 92 180
0.404594 -0.918264 0.209783 153 101 180
-0.602472 0.145048 0.808718 219 35 180
-0.187854 -0.989183 0.064494 137 117 180
0.550674 -0.591027 0.572128 193 61 180
0.338384 0.312094 -0.861794 34 220 180
-0.018242 0.598633 -0.806884 40 214 180
0.016377 0.082172 -1.056000 12 242 180
0.691980 0.178526 -0.781606 43 211 180
-0.036661 -0.028804 0.986218 239 15 180
-0.298338 0.035945 1.028845 244 10 180
-0.177373 -0.304960 -0.970732 22 232 180
0.622680 0.742013 0.357154 169 85 180
0.355758 0.185449 -0.923727 27 227 180
-0.974165 0.385484 -0.036537 126 128 180
-0.432655 0.076129 0.865758 226 28 180
0.295103 0.138815 -0.929839 26 228 180
-0.999005 -0.282896 0.099706 141 113 180
-0.753384 -0.114700 0.638401 200 54 180
-0.051556 0.085996 -0.922381 27 227 180
-0.018559 0.006691 1.006336 241 13 180
-0.907246 0.512324 0.178977 149 105 180
-0.432960 0.009783 -0.884551 31 223 180
0.329536 -0.312673 -0.793824 41 213 180
0.669417 -0.121016 0.650295 202 52 180
0.067852 0.150378 -0.975028 21 233 180
0.450894 0.741730 0.286952 161 93 180
0.966266 -0.170987 0.415896 176 78 180
0.061135 0.609313 -0.828557 38 216 180
0.426163 0.318923 0.755394 213 41 180
-0.006375 0.848369 -0.480974 76 178 180
0.038969 -0.079255 0.973440 238 16 180
-0.375506 -0.702651 -0.510356 73 181 180
-0.023133 -0.150963 0.964832 237 17 180
-0.230551 0.128420 -0.927389 27 227 180
0.559783 -0.715269 0.366203 170 84 180
0.018524 0.068763 -1.053991 13 241 180
-0.133617 0.210387 0.966295 237 17 180
-0.310536 0.314312 0.886105 228 26 180
0.468189 0.778039 0.004436 130 124 180
0.647490 -0.207712 0.801630 219 35 180
-0.029079 0.425395 -0.895636 30 224 180
0.933121 0.370397 -0.172811 110 144 180
0.464813 0.469546 0.781832 216 38 180
-0.786419 -0.605847 0.080332 139 115 180
0.616603 -0.616420 0.568622 193 61 180
-0.052954 0.325804 0.926534 232 22 180
0.767360 -0.103450 0.528548 188 66 180
0.310806 -0.007788 -0.957205 23 231 180
0.979167 -0.001307 0.241012 156 98 180
-0.859763 -0.493717 -0.387922 87 167 180
0.741173 -0.625636 0.103551 141 113 180
0.097301 0.210343 -0.976120 21 233 180
0.013604 -0.459665 -0.973317 21 233 180
0.018940 0.470380 -0.694500 52 202 180
-0.804336 -0.264090 0.627255 199 55 180
0.255944 -0.422278 0.888246 228 26 180
-0.739675 0.183551 0.713585 209 45 180
0.159553 -0.016153 0.979471 238 16 180
0.043833 -0.752105 0.760918 214 40 180
-0.963084 -0.333215 -0.117882 116 138 180
0.431332 0.156201 -0.768265 44 210 180
0.318803 -0.191095 0.834489 222 32 180
0.445357 0.575948 0.698690 207 47 180
-0.356198 0.163396 -0.840486 36 218 180
0.917580 -0.401693 0.107078 141 113 180
-0.150973 0.197305 -1.003434 18 236 180
-0.516801 -0.558134 -0.633055 59 195 180
0.413266 0.212611 0.948440 235 19 180
-0.540644 0.186475 -0.782903 43 211 180
-0.386948 -0.040820 0.955233 236 18 180
-0.761244 0.296994 0.652277 202 52 180
0.572583 0.154983 0.682712 205 49 180
-0.421903 0.058543 -0.859106 34 220 180
-0.815857 -0.208010 -0.496131 74 180 180
0.174431 -0.011658 -1.068144 11 243 180
0.000634 0.017612 0.954810 236 18 180
-1.070354 0.004484 -0.005905 129 125 180
-0.054613 -0.035597 0.949709 235 19 180
0.980081 0.406626 -0.064090 122 132 180
0.271364 -0.497306 -0.824277 38 216 180
0.908410 -0.126281 0.142578 145 109 180
-0.312126 -0.065386 0.947018 235 19 180
0.807057 0.340258 0.429130 177 77 180
0.672706 -0.754175 0.264669 159 95 180
-0.171128 -0.082808 0.910584 231 23 180
0.414735 0.880794 -0.045339 125 129 180
0.030011 -0.781469 -0.644881 58 196 180
0.316058 0.245022 0.866861 226 28 180
-0.222703 0.476165 0.875871 227 27 180
-0.411471 0.740212 -0.293527 97 157 180
-0.109228 -0.872876 -0.129777 115 139 180
-0.058067 -0.051116 1.017462 243 11 180
0.741193 0.617577 -0.457504 79 175 180
-0.575614 -0.964633 0.009553 131 123 180
-0.668868 0.027652 -0.647408 58 196 180
0.739402 0.481257 0.506707 186 68 180
-0.778780 0.336004 -0.537771 70 184 180
0.696836 0.095150 0.654512 202 52 180
0.521112 0.851208 0.204594 152 102 180
-0.055832 0.026581 -0.940328 25 229 180
-0.173745 -0.072147 0.991172 240 14 180
0.248422 -1.055016 -0.161799 112 142 180
0.692226 0.743853 -0.234369 104 150 180
-0.040938 -0.148616 -0.980845 21 233 180
0.066474 0.569447 0.767651 215 39 180
0.568798 0.446757 -0.698917 52 202 180
-0.404293 0.153554 0.977252 238 16 180
0.327908 0.641841 0.714763 209 45 180
0.025138 0.019168 -0.929521 26 228 180
-0.124879 -0.094961 0.885420 228 26 180
0.327330 0.970673 -0.255925 101 153 180
0.558338 0.087969 0.783183 217 37 180
0.332305 0.180697 0.964992 237 17 180
0.031532 0.010817 1.010818 242 12 180
-0.279215 0.308864 0.909146 231 23 180
-0.505111 -0.519608 0.643331 201 53 180
-0.692132 -0.305758 -0.748252 46 208 180
-0.778091 -0.073361 -0.585110 65 189 180
-0.185532 -0.466924 0.906150 230 24 180
-0.726508 -0.072384 0.654501 202 52 180
-0.146437 -0.249817 -0.982622 20 234 180
0.048238 0.863767 0.525597 188 66 180
0.114579 0.292312 -0.901294 29 225 180
-0.204989 -0.547330 -0.806727 40 214 180
0.458070 -0.793890 -0.180811 110 144 180
-0.167445 -0.991801 0.011173 131 123 180
-0.332141 0.491432 0.933098 233 21 180
-0.806357 0.497272 -0.252566 102 152 180
0.292406 0.104554 0.962993 237 17 180
-0.000956 -0.562053 -0.781651 43 211 180
-0.469076 -0.590758 -0.539680 70 184 180
-0.040890 0.852040 0.556897 191 63 180
0.055474 0.686178 -0.803981 40 214 180
0.056098 -0.953796 0.128011 144 110 180
-1.012574 -0.029501 0.280705 161 93 180
-0.344498 0.433620 -0.796550 41 213 180
0.459815 0.739834 -0.469062 77 177 180
-0.458513 -0.943946 -0.011915 128 126 180
0.840871 0.038617 0.512932 187 67 180
0.006131 -0.165707 0.983909 239 15 180
0.557114 -0.317146 -0.813397 39 215 180
-0.620505 -0.465793 0.574995 193 61 180
0.730437 -0.501125 -0.506122 73 181 180
-0.908524 -0.267098 -0.173152 110 144 180
0.799413 0.342768 0.469352 182 72 180
0.041233 -0.316404 -0.886464 31 223 180
0.496456 0.728960 -0.432220 82 172 180
0.343849 -0.356719 0.856186 225 29 180
0.095904 0.283986 -0.978665 21 233 180
0.285337 -0.092247 0.919007 232 22 180
-0.124387 -0.174072 0.952318 235 19 180
-0.445105 -0.698310 -0.616848 61 193 180
-0.003391 0.911731 -0.191091 108 146 180
0.821612 0.150546 -0.452766 79 175 180
-0.549815 -0.787831 0.102858 141 113 180
-0.388320 -0.321112 -0.830874 37 217 180
-0.019358 0.205959 -0.900953 30 224 180
-0.941473 -0.400743 0.236662 156 98 180
-0.148760 0.702180 0.595120 196 58 180
0.028673 0.239043 -1.019585 16 238 180
-0.189246 0.636284 -0.733005 48 206 180
-0.045864 -0.758120 -0.670611 55 199 180
-0.024077 0.740134 -0.699428 52 202 180
-0.502282 -0.518531 0.667762 204 50 180
-0.192317 -0.455536 -0.887555 31 223 180
0.304586 -0.994947 -0.195414 108 146 180
-0.250994 0.624211 0.755399 213 41 180
0.414640 0.041516 0.896694 229 25 180
-0.634100 -0.104683 -0.715851 50 204 180
-0.884690 0.436951 -0.206538 107 147 180
0.756119 -0.385748 -0.532103 70 184 180
0.263642 0.617975 0.697347 207 47 180
0.649409 -0.494855 0.501892 185 69 180
-0.352124 -0.649634 -0.631559 59 195 180
-0.690218 -0.180253 -0.800674 41 213 180
0.873696 0.426957 0.312314 164 90 180
-0.547480 -0.535168 -0.515922 72 182 180
0.825504 -0.530301 0.361514 170 84 180
-0.288392 0.068778 -0.896327 30 224 180
0.911071 -0.026390 0.535762 189 65 180
0.728458 0.094719 -0.647683 58 196 180
-0.177216 -0.009021 -0.997087 19 235 180
-0.901141 0.127373 -0.313220 95 159 180
0.369005 -0.767739 0.480055 183 71 180
-0.791459 0.461391 0.007350 130 124 180
-0.421635 -0.007928 0.933480 233 21 180
-0.193096 0.712900 0.744564 212 42 180
0.211252 -0.194024 -1.019958 16 238 180
0.169666 0.037457 1.012433 242 12 180
0.175530 -0.152722 -0.941147 25 229 180
0.517410 -0.679466 -0.581919 65 189 180
0.006247 0.071344 -1.030038 15 239 180
0.365661 0.641569 0.731823 211 43 180
-0.316538 -0.482809 -0.871065 33 221 180
0.683867 -0.671117 0.455294 180 74 180
-0.885460 -0.110016 0.608383 197 57 180
0.090850 0.006837 1.039784 245 9 180
-0.836582 0.136086 0.398929 174 80 180
0.414276 0.695452 0.432172 178 76 180
0.152181 0.241690 0.948041 235 19 180
-0.878245 -0.478510 0.071704 138 116 180
0.111653 0.134062 -0.928523 26 228 180
0.955939 -0.023583 -0.499877 74 180 180
0.033349 0.028841 -0.952437 24 230 180
0.354673 -0.626094 -0.795306 41 213 180
0.275969 -0.068266 0.984461 239 15 180
-0.943047 0.203474 0.183904 150 104 180
-0.044841 0.568872 -0.869642 33 221 180
0.131718 -0.808589 0.486642 184 70 180
0.856572 0.258499 -0.308829 95 159 180
0.295190 0.977024 -0.214639 106 148 180
0.283839 -0.343185 0.878150 227 27 180
-0.030334 0.013251 0.986203 239 15 180
-0.218174 -0.956839 0.075337 138 116 180
0.144709 -0.172719 1.066735 248 6 180
-0.651634 -0.708122 -0.178299 110 144 180
0.073433 -0.055838 -1.018765 16 238 180
-0.264575 0.809122 0.476060 182 72 180
0.006925 0.780444 -0.478989 76 178 180
0.337305 -0.671874 -0.715778 50 204 180
-0.402455 -0.107860 0.802320 219 35 180
-0.587895 -0.044522 0.791026 217 37 180
0.623258 0.624128 0.046813 135 119 180
0.111762 -0.474716 0.957551 236 18 180
0.720649 0.650391 -0.100099 118 136 180
0.464821 -0.918812 0.232805 155 99 180
0.366473 0.204300 -0.862959 34 220 180
-0.018231 -0.066010 -0.940509 25 229 180
0.522175 -0.072067 0.852954 224 30 180
-0.005603 0.005266 -0.999739 19 235 180
-0.114848 0.310344 -0.901180 30 224 180
0.049142 -0.175228 -0.981066 21 233 180
0.104954 -0.811966 0.615398 198 56 180
-0.505965 0.054183 -0.920957 27 227 180
0.648043 0.120146 0.783915 217 37 180
-0.528328 0.774756 0.087998 139 115 180
-0.207877 -0.065105 -0.990156 20 234 180
-0.650333 0.765090 -0.206733 107 147 180
0.537776 -0.109216 -0.774635 44 210 180
0.915774 -0.221114 -0.341028 92 162 180
0.239417 -0.689740 0.731072 211 43 180
-0.065564 0.994795 -0.050310 124 130 180
-0.089976 -0.844107 -0.514792 72 182 180
-0.016279 0.078197 1.042053 245 9 180
0.009970 -0.903930 0.423683 177 77 180
-0.064325 -0.285064 -0.882880 32 222 180
-0.927915 -0.371096 -0.370168 88 166 180
0.157105 0.212057 -1.043699 14 240 180
-0.202037 0.992772 -0.099546 119 135 180
0.288409 -0.087907 -0.936654 26 228 180
0.074882 0.117493 0.972353 238 16 180
-0.911848 -0.012478 -0.413045 84 170 180
0.010042 -0.074707 -0.912605 28 226 180
0.548909 -0.507130 0.665400 203 51 180
-0.290538 0.457641 -0.809868 40 214 180
-0.384444 0.788642 -0.484532 76 178 180
0.773998 -0.479648 0.339323 167 87 180
0.286901 -0.878966 0.292218 162 92 180
-0.260952 -0.980842 0.209782 153 101 180
-0.194059 -0.033673 1.009817 242 12 180
0.186005 0.994105 0.188450 151 103 180
-0.699483 -0.673328 -0.264899 100 154 180
-0.595965 -0.806355 -0.150676 113 141 180
-0.043283 0.457707 -0.849325 35 219 180
-0.102194 -0.179210 -0.822400 38 216 180
0.216650 -0.955134 -0.219662 105 149 180
-0.037433 0.937914 0.125467 144 110 180
0.817596 0.386192 0.384163 172 82 180
0.462233 0.223767 -0.921519 27 227 180
0.207895 0.014887 0.999541 241 13 180
0.036148 -0.964554 0.165117 148 106 180
-0.465383 0.025401 -0.837394 37 217 180
0.274151 0.876994 -0.312724 95 159 180
-0.140653 -0.925379 -0.453610 79 175 180
1.060252 -0.141661 -0.357206 90 164 180
0.361361 0.109476 0.935614 233 21 180
-0.819052 0.294423 -0.601427 63 191 180
-0.241741 -0.253770 -0.993677 19 235 180
0.023230 0.064974 0.953706 236 18 180
0.253478 -0.107608 -1.022843 16 238 180
0.605386 -0.210608 0.668032 204 50 180
0.060975 -0.046894 -1.031022 15 239 180
0.151100 0.210351 -0.960853 23 231 180
0.675547 0.656541 -0.077150 121 133 180
0.111740 -0.822713 -0.494093 75 179 180
0.915099 -0.061043 -0.364326 89 165 180
-0.673926 -0.456001 -0.574043 66 188 180
0.406663 -0.028317 0.901543 230 24 180
-0.517137 -0.907671 -0.194434 108 146 180
-0.030126 -0.103462 -0.912927 28 226 180
0.202459 -0.572609 -0.736293 48 206 180
-0.199971 0.603962 0.749028 213 41 180
-0.339326 -0.358899 -0.921135 27 227 180
-0.859983 0.461759 -0.428607 82 172 180
0.498779 0.437548 0.745816 212 42 180
-0.108595 -0.471500 0.825592 221 33 180
-0.939923 -0.115678 -0.074790 121 133 180
-0.203778 -0.937314 -0.397749 85 169 180
-0.469648 -0.053565 -0.786146 42 212 180
0.954672 0.269571 -0.134689 115 139 180
0.290340 -0.927471 0.221553 154 100 180
-0.861865 -0.451636 0.416880 176 78 180
0.006363 -0.458878 -0.981106 21 233 180
-0.368141 0.921846 -0.167478 111 143 180
0.112814 -0.674079 -0.685303 53 201 180
0.038308 0.055819 1.024193 243 11 180
0.274482 -0.240851 -0.931861 26 228 180
-0.018330 0.009354 -0.998798 19 235 180
-0.648989 0.356260 0.673620 204 50 180
0.590203 -0.457971 -0.712263 50 204 180
0.189284 0.890562 0.326213 166 88 180
0.459248 0.816047 0.214864 153 101 180
0.379691 -0.157073 0.874357 227 27 180
0.431414 0.128253 -0.776692 43 211 180
-0.263128 -0.660852 -0.692780 53 201 180
-0.899149 -0.098638 0.155297 147 107 180
0.117519 -0.541262 0.884702 228 26 180
0.604285 0.079012 0.840580 223 31 180
-0.149919 0.539271 0.817416 220 34 180
-0.378538 0.214532 0.813412 220 34 180
0.098415 -0.003936 0.883574 228 26 180
0.330196 -0.327407 0.983571 239 15 180
-0.680971 -0.175698 -0.690395 53 201 180
0.642917 0.722177 -0.336147 92 162 180
0.969607 -0.047887 -0.243645 103 151 180
-0.655303 -0.778342 0.465021 181 73 180
0.071229 -0.220541 0.967618 237 17 180
-0.014452 -0.029915 -1.068185 11 243 180
-0.205353 0.908631 -0.158803 112 142 180
-0.046988 -0.030264 0.981572 239 15 180
-0.702911 0.362878 0.618172 198 56 180
0.091878 0.443235 -1.039257 14 240 180
0.300849 0.349865 -0.934630 26 228 180
-0.927168 -0.101367 0.084437 139 115 180
-0.227517 -1.062805 0.049002 135 119 180
-0.072406 -0.912637 -0.332916 93 161 180
0.501841 0.831995 -0.462566 78 176 180
-0.824062 0.448183 0.160004 147 107 180
0.656390 -0.015298 0.794597 218 36 180
0.314948 0.478011 -0.827985 38 216 180
0.351020 0.951289 -0.009620 129 125 180
-0.066326 0.578459 -0.776583 43 211 180
-0.018001 -1.031724 -0.020348 127 127 180
-0.301751 0.127795 0.860169 225 29 180
-0.050499 -0.851365 -0.368485 89 165 180
0.108365 -0.744324 0.730773 211 43 180
-0.209076 -0.824773 -0.437085 81 173 180
0.258345 -0.165818 0.938860 234 20 180
0.191108 -0.124783 -0.987544 20 234 180
-0.177567 0.266665 -0.917398 28 226 180
-0.629821 -0.044111 0.814908 220 34 180
0.676627 0.330856 -0.710703 51 203 180
-0.312124 -0.363689 0.863253 225 29 180
0.401537 0.296718 -0.911601 28 226 180
0.843412 -0.709842 -0.201620 107 147 180
0.829592 0.023753 -0.402987 85 169 180
0.274889 -0.071933 -0.923594 27 227 180
0.774479 0.415179 0.519436 187 67 180
0.720393 -0.136656 -0.571728 66 188 180
0.371091 0.386443 -0.886939 31 223 180
-0.017481 0.026070 0.994128 240 14 180
-0.206720 0.013701 -0.925145 27 227 180
-0.731245 -0.522715 0.419307 176 78 180
0.456355 0.858247 -0.278978 99 155 180
-0.008666 1.012321 -0.352848 90 164 180
0.222315 -0.623350 0.776747 216 38 180
0.035149 0.799363 0.543154 190 64 180
0.017310 0.705278 0.647302 201 53 180
-0.824213 -0.345678 -0.412137 84 170 180
0.974266 0.105377 -0.057278 123 131 180
0.626448 0.162416 -0.767774 44 210 180
-0.428826 0.816095 0.288528 162 92 180
-0.071973 -0.665329 0.720623 210 44 180
-0.587841 0.786411 0.198782 152 102 180
0.011936 0.992134 -0.048744 124 130 180
0.054940 0.071921 -1.059009 12 242 180
0.424885 -0.058568 -0.859240 34 220 180
0.748042 -0.762352 -0.067949 122 132 180
-0.712984 0.352703 0.624296 199 55 180
-0.520396 0.566034 0.622431 199 55 180
-0.386135 -0.398092 0.859066 225 29 180
-0.865028 -0.539611 0.163711 148 106 180
-0.810764 0.148457 0.458269 180 74 180
-0.114214 -0.953878 0.069298 137 117 180
0.657349 -0.353111 0.536324 189 65 180
0.521519 0.240653 0.735578 211 43 180
0.183542 0.642465 0.648710 202 52 180
0.785574 0.276981 0.498329 185 69 180
0.413832 0.787500 -0.339331 92 162 180
0.038038 0.236443 1.084365 250 4 180
-0.179785 0.407692 1.017654 243 11 180
-0.178993 0.703274 -0.840915 36 218 180
0.649458 -0.711965 0.223204 154 100 180
-0.058867 -0.002790 0.981783 239 15 180
-0.109150 1.020493 -0.163917 111 143 180
-0.258420 0.356777 0.893362 229 25 180
-0.403900 -0.192906 0.915744 231 23 180
0.458391 0.718168 0.320440 165 89 180
0.223423 -0.915944 -0.337469 92 162 180
0.899392 0.272856 0.306465 164 90 180
0.044367 -0.025816 0.951649 235 19 180
0.010805 0.119718 -1.098045 8 246 180
-0.544118 0.225079 0.772759 215 39 180
-0.926801 0.187456 -0.066858 122 132 180
0.859260 0.403425 -0.196689 108 146 180
0.249733 0.910336 -0.455173 79 175 180
0.465609 0.013231 -0.934460 26 228 180
-0.219650 -0.258513 -1.040020 14 240 180
-0.953259 -0.173355 0.234471 156 98 180
0.214552 -0.807395 0.344929 168 86 180
0.675971 0.037409 -0.778679 43 211 180
-0.719013 0.232909 -0.699266 52 202 180
-0.508576 -0.612826 0.542189 190 64 180
-0.491488 -0.954502 -0.039267 125 129 180
0.233639 -0.057688 -0.922514 27 227 180
0.908429 0.293984 0.021321 132 122 180
-0.331893 -0.019870 -0.958054 23 231 180
-0.976849 -0.131352 -0.114056 117 137 180
-0.114220 0.072180 1.003105 241 13 180
0.032192 -0.781458 0.475212 182 72 180
-0.713833 0.133641 0.678595 205 49 180
0.183923 -0.450338 -0.907599 29 225 180
-0.149358 0.237919 0.928398 233 21 180
-0.827736 -0.033200 -0.385893 87 167 180
-0.821502 0.448008 0.425112 177 77 180
0.482596 0.586556 -0.488847 75 179 180
-0.195698 0.060950 0.969547 237 17 180
0.918546 0.061996 -0.293661 97 157 180
0.006815 0.668269 -0.752135 46 208 180
0.008183 -0.540327 0.813558 220 34 180
-0.807121 0.005298 -0.525974 71 183 180
0.204311 -0.901293 0.375362 171 83 180
0.435206 -0.039768 -0.854647 35 219 180
-0.279529 -0.673236 -0.808263 40 214 180
0.358227 0.852914 0.365829 170 84 180
0.273597 -0.959782 0.314358 164 90 180
0.009838 -0.003322 -1.081167 10 244 180
1.010145 -0.344610 0.043692 134 120 180
-0.926568 0.059676 -0.028515 126 128 180
-0.030258 -0.023721 1.035013 245 9 180
-0.287104 0.995464 0.067596 137 117 180
0.550570 0.354876 0.652180 202 52 180
0.863752 -0.336861 -0.312453 95 159 180
-0.936165 0.264491 0.080112 138 116 180
-0.390208 0.890233 0.086216 139 115 180
-0.632980 0.253226 0.664755 203 51 180
-0.456223 -0.530833 0.699812 207 47 180
-0.500053 0.672085 0.568614 193 61 180
0.032082 0.190703 -0.949702 24 230 180
0.725549 0.626558 -0.326932 93 161 180
0.824554 -0.549200 0.171893 149 105 180
-0.780291 -0.601899 0.120513 143 111 180
0.141480 0.119735 -0.910234 28 226 180
0.079000 -0.072349 -1.019903 16 238 180
-0.804373 -0.539303 -0.221933 105 149 180
0.321328 0.018487 1.027466 244 10 180
-0.932413 0.056701 0.059754 136 118 180
0.166645 0.982541 -0.081672 121 133 180
0.523242 -0.894280 0.032203 133 121 180
0.507229 -0.196486 0.810679 220 34 180
-0.411362 -0.836399 -0.065510 122 132 180
-0.065785 -0.018420 0.969703 237 17 180
-0.041745 -0.518394 0.791262 217 37 180
0.572828 0.680901 0.416609 176 78 180
0.455425 0.876425 0.394195 173 81 180
-0.296734 -0.321315 -0.973535 21 233 180
-0.029083 0.340016 0.874579 227 27 180
-0.359580 -0.867848 0.210969 153 101 180
0.269628 0.120466 0.885892 228 26 180
-0.658753 -0.431879 0.524843 188 66 180
-0.404008 0.298067 0.866338 226 28 180
0.413416 0.089243 0.906522 230 24 180
0.847564 0.592851 -0.039417 125 129 180
-0.449894 0.169212 -0.828906 38 216 180
-0.510391 0.119932 -0.882518 32 222 180
0.290681 0.699250 -0.614576 61 193 180
-0.580020 -0.619454 -0.337681 92 162 180
0.156617 0.926195 0.393539 173 81 180
-0.063576 -0.587750 0.846704 224 30 180
0.031424 -0.020654 -0.964009 23 231 180
-0.682587 -0.702379 -0.299135 96 158 180
-0.571121 -0.127893 -0.827962 38 216 180
0.368648 0.966667 -0.270773 100 154 180
0.802102 -0.288488 -0.577615 65 189 180
-0.800196 0.484902 -0.563447 67 187 180
-0.060521 -0.098950 0.981185 239 15 180
0.225354 -0.917745 0.436552 178 76 180
0.085070 0.029245 0.990282 240 14 180
-0.451876 -0.100623 0.810787 220 34 180
-0.648296 -0.793888 -0.100638 118 136 180
-0.859886 0.147550 -0.696174 52 202 180
-0.046820 0.918949 -0.262889 100 154 180
-0.216463 0.290036 -0.865293 33 221 180
-0.996738 0.123785 -0.214380 106 148 180
0.736454 -0.667359 -0.210368 106 148 180
0.668104 0.192282 -0.646835 58 196 180
-0.067983 0.217573 0.904737 230 24 180
0.018664 0.001040 1.099485 252 2 180
0.791271 0.670899 0.303531 163 91 180
-0.173786 1.018450 0.158980 147 107 180
-0.228324 0.018364 0.947209 235 19 180
0.519124 0.603637 0.661433 203 51 180
0.464735 -0.726790 0.506081 186 68 180
0.072649 -0.675931 0.721400 210 44 180
0.231396 0.849998 0.449605 180 74 180
-0.359959 0.748210 0.475506 182 72 180
0.740173 0.697629 0.091871 140 114 180
-0.831003 0.012933 -0.567618 67 187 180
-0.397959 0.919097 -0.054897 123 131 180
-0.924494 0.300913 0.341880 168 86 180
0.902390 0.032568 0.576682 194 60 180
-0.288255 -0.823281 -0.495986 75 179 180
0.045335 -0.213616 -0.922199 27 227 180
-0.517163 0.553682 0.723370 210 44 180
0.000622 -0.086825 -0.923184 27 227 180
0.819871 -0.536880 0.018887 132 122 180
0.164569 -0.121927 -1.012209 17 237 180
0.298784 0.302177 0.854790 225 29 180
0.634592 0.099605 -0.708642 51 203 180
0.227661 -0.824623 -0.429941 82 172 180
0.352167 0.572563 -0.682260 54 200 180
-0.317327 -0.179600 -0.876627 32 222 180
0.527114 0.043161 0.842509 223 31 180
-0.331600 -0.641341 0.677569 205 49 180
0.127712 -0.941730 0.482472 183 71 180
0.783838 0.354317 -0.288709 98 156 180
-0.386065 -0.463040 -0.853731 35 219 180
-0.080898 0.049732 -0.939259 25 229 180
-0.048792 0.657863 -0.793845 41 213 180
-0.007345 0.001181 0.979488 238 16 180
-0.359216 0.890517 0.268558 159 95 180
-0.076148 0.506074 -0.985770 20 234 180
-0.476253 0.553642 -0.610936 62 192 180
-0.298028 0.623653 0.741841 212 42 180
0.942918 -0.042840 -0.038310 125 129 180
-0.161072 0.891247 -0.463443 78 176 180
0.461641 0.474308 0.690987 206 48 180
-0.569001 0.142072 -0.832911 37 217 180
0.254995 -0.398457 0.878594 227 27 180
-0.077898 0.017572 -0.998038 19 235 180
-0.474619 0.522985 0.798523 218 36 180
-0.357417 -0.089089 0.948385 235 19 180
-0.440074 0.024296 0.891777 229 25 180
0.128936 0.781192 -0.572996 66 188 180
-0.144966 -0.824534 -0.553991 68 186 180
0.743443 0.435145 -0.603656 63 191 180
-0.873699 -0.129270 -0.508454 73 181 180
0.459903 -0.880104 -0.117561 117 137 180
0.050956 0.142532 1.100193 252 2 180
-0.840952 -0.469532 0.020023 132 122 180
1.008786 0.033650 -0.287638 98 156 180
0.325477 0.356286 0.841685 223 31 180
0.547455 -0.214716 0.856270 225 29 180
-0.800925 -0.368383 0.108341 142 112 180
-0.170911 0.729666 -0.773864 44 210 180
-0.089100 0.952117 -0.455490 79 175 180
-0.528416 -0.862769 -0.051485 124 130 180
0.906749 -0.474101 0.108273 142 112 180
0.254311 0.053627 0.947848 235 19 180
0.022468 -0.701019 -0.707264 51 203 180
-0.163170 0.628006 -0.727970 49 205 180
-0.456906 0.676462 0.639783 201 53 180
0.740221 -0.273003 -0.543474 69 185 180
0.089731 0.014354 0.985807 239 15 180
0.896385 0.498927 0.181872 150 104 180
0.493728 0.917159 -0.080857 121 133 180
0.474640 -0.733511 -0.619971 61 193 180
0.009210 -0.335384 0.975758 238 16 180
0.004324 -0.849545 -0.429768 82 172 180
-0.348691 0.879390 -0.125536 116 138 180
-0.021264 -0.953949 -0.348165 91 163 180
-0.034725 -0.172677 1.010030 242 12 180
0.433289 -0.354672 -0.847633 35 219 180
-0.057904 -0.312322 -0.911466 28 226 180
0.745996 -0.059500 0.604160 197 57 180
0.060772 0.448013 -0.893056 30 224 180
-0.471594 -0.064805 -0.873283 33 221 180
-0.632944 -0.749119 -0.255833 101 153 180
-0.548501 0.730727 0.339628 167 87 180
-0.437871 -0.785551 -0.135666 115 139 180
0.207794 0.011449 -1.036188 15 239 180
0.161577 -0.951778 -0.001902 129 125 180
-0.277321 -0.975087 0.171654 149 105 180
-0.063454 0.012953 1.014247 242 12 180
0.000345 -0.001551 -0.952820 24 230 180
-0.810727 -0.379097 0.565724 192 62 180
0.455246 0.801579 0.383343 172 82 180
0.116522 -0.036515 0.914959 231 23 180
0.580174 0.583662 -0.363028 89 165 180
-0.347822 0.194881 -0.955666 23 231 180
0.398999 0.871225 0.187409 150 104 180
0.805778 0.491366 0.406351 175 79 180
-0.238650 -0.859845 0.514391 187 67 180
0.042064 0.240362 0.915180 231 23 180
0.836600 0.211836 0.466875 181 73 180
0.590936 -0.780717 -0.154807 112 142 180
0.008501 -1.094724 -0.141675 114 140 180
-0.239074 0.169150 0.902433 230 24 180
0.060225 0.887574 0.605019 197 57 180
-0.472324 -0.903121 -0.096991 119 135 180
-0.124775 -0.220338 1.014985 242 12 180
0.029557 -0.869339 -0.571229 66 188 180
-0.388005 -0.486751 0.714439 209 45 180
0.300302 0.557048 -0.857803 34 220 180
-0.008046 0.076824 -0.975315 21 233 180
0.219482 -0.858514 -0.533534 70 184 180
-0.165951 -0.666931 0.904066 230 24 180
-0.429915 0.517018 -0.631952 59 195 180
-0.868530 0.125469 0.410138 175 79 180
-0.530239 -0.126097 -0.857446 34 220 180
-0.931640 0.033227 -0.364255 89 165 180
0.127178 0.056012 1.036777 245 9 180
0.314835 -0.918202 -0.398856 85 169 180
-0.038764 -0.084733 -1.019283 16 238 180
0.551992 0.015897 0.731250 211 43 180
-0.843438 0.225491 -0.463464 78 176 180
0.487590 -0.276068 0.745804 212 42 180
-0.642702 0.638199 -0.456200 79 175 180
-0.299272 0.351820 0.847475 224 30 180
0.163825 0.124829 -0.830584 37 217 180
0.171368 -0.310942 -0.898520 30 224 180
-0.317388 0.284655 -0.921243 27 227 180
0.639739 -0.729037 -0.238472 103 151 180
0.699282 0.521305 -0.448513 80 174 180
0.231261 0.888029 -0.426703 82 172 180
-0.018737 -0.280398 0.882499 228 26 180
0.441646 0.742812 -0.419398 83 171 180
-0.060805 -0.637883 0.760092 214 40 180
-0.292536 -0.731697 0.502849 185 69 180
-0.839019 0.540590 -0.254473 101 153 180
-0.522563 -0.143695 -0.907835 29 225 180
0.452684 0.330562 0.702053 208 46 180
0.131901 -0.549864 -0.784939 42 212 180
-0.140061 0.874288 -0.448306 80 174 180
-0.451612 0.892155 -0.350960 91 163 180
-0.229365 0.410883 0.815985 220 34 180
0.106501 0.417206 -0.868955 33 221 180
0.693638 -0.802350 -0.059644 123 131 180
0.042518 0.038554 -1.104991 7 247 180
0.518463 -0.283833 -0.888098 31 223 180
0.679054 -0.734763 -0.312391 95 159 180
0.070709 -0.000896 -1.070652 11 243 180
-0.064830 0.051132 -1.082796 9 245 180
0.693329 0.681117 -0.243312 103 151 180
0.641526 0.636262 0.594296 196 58 180
-0.107850 0.448653 0.903538 230 24 180
-0.108107 -0.934970 0.304467 163 91 180
0.973376 -0.118771 0.271256 160 94 180
0.415497 -0.896931 -0.128164 115 139 180
-0.500652 0.201455 0.792317 218 36 180
-0.892829 0.024369 0.555230 191 63 180
-0.376268 0.401871 0.802260 219 35 180
0.216626 0.894233 -0.083419 120 134 180
-0.414172 0.035602 -0.934097 26 228 180
-0.367320 0.889965 -0.233813 104 150 180
0.425718 0.600336 -0.673058 55 199 180
0.262821 0.138506 -0.965095 22 232 180
-0.153584 -0.930966 -0.427634 82 172 180
0.238142 -0.284559 0.892391 229 25 180
0.349509 0.335794 0.887924 228 26 180
-0.684946 -0.582087 -0.358677 90 164 180
-0.481394 -0.898714 -0.196011 108 146 180
0.085587 0.203600 -0.998543 19 235 180
0.941911 -0.230516 0.334859 167 87 180
-0.401477 0.392346 0.848180 224 30 180
-0.406934 -0.866386 -0.378135 88 166 180
-0.677323 0.598351 0.465246 181 73 180
0.091748 0.733288 0.664866 203 51 180
0.313672 -0.580351 0.681168 205 49 180
0.901353 -0.269064 -0.058312 123 131 180
0.424580 0.914052 -0.134876 115 139 180
-0.233624 0.085707 -0.949329 24 230 180
0.136932 -0.929962 -0.160942 112 142 180
-0.516180 -0.396977 0.722218 210 44 180
0.179487 0.952036 -0.319539 94 160 180
-0.038292 -0.021413 0.927866 233 21 180
-0.610541 -0.584567 0.738717 212 42 180
-0.005144 0.931324 -0.053339 124 130 180
-0.665223 -0.027609 -0.649444 57 197 180
-0.908297 -0.338684 0.064881 137 117 180
0.843302 -0.423471 0.266895 159 95 180
0.054525 0.352103 0.860096 225 29 180
-0.468636 -0.567100 -0.689571 53 201 180
0.626467 0.656877 -0.677344 54 200 180
-0.147751 0.733066 -0.704089 51 203 180
-0.140523 -0.542218 -0.885241 31 223 180
0.401307 0.839795 -0.337815 92 162 180
0.912082 0.284987 -0.424018 82 172 180
0.794627 0.245417 0.547600 190 64 180
-0.863943 0.520261 -0.128728 115 139 180
0.741037 -0.005072 -0.763930 45 209 180
-0.048760 0.151626 0.963377 237 17 180
-0.688235 -0.277694 -0.623937 60 194 180
-0.003357 0.996454 -0.214489 106 148 180
-0.573597 0.516406 0.713159 209 45 180
-0.337547 0.361284 -0.867787 33 221 180
-0.496167 0.669938 0.455303 180 74 180
-0.040029 -0.531694 -0.962508 23 231 180
0.322233 -0.126339 -0.891660 31 223 180
-0.316200 -0.225866 0.867119 226 28 180
0.225131 0.874165 -0.339953 92 162 180
-0.494696 -0.863449 -0.068456 122 132 180
-0.671430 0.680126 0.290759 162 92 180
-0.662353 0.437879 0.729222 211 43 180
0.012636 -0.038941 -0.965863 22 232 180
-0.529576 0.801228 0.247303 157 97 180
0.438415 -0.527245 0.755453 213 41 180
0.874967 -0.028492 0.518171 187 67 180
0.577789 0.205649 -0.615925 61 193 180
0.688076 -0.626859 -0.277809 99 155 180
0.035755 -0.003348 -0.952764 24 230 180
0.102517 0.833466 -0.685195 53 201 180
0.436016 0.621834 0.562312 192 62 180
0.545646 0.065882 0.814356 220 34 180
0.214631 -1.003773 -0.008315 129 125 180
-0.450391 0.856085 -0.350441 91 163 180
0.334404 0.200511 0.935370 233 21 180
-0.585444 -0.224625 0.851447 224 30 180
0.107684 -0.521201 -0.910835 28 226 180
0.652378 0.404267 -0.642614 58 196 180
-0.008506 0.016111 0.960083 236 18 180
-0.591432 -0.766711 -0.329570 93 161 180
-0.131421 -0.433511 -0.922478 27 227 180
0.408054 0.290224 0.929503 233 21 180
0.961920 0.182600 0.182142 150 104 180
-0.268059 0.798260 0.598862 196 58 180
-0.063431 -0.518669 0.805554 219 35 180
-0.149343 0.558722 0.750232 213 41 180
-0.087010 -0.994760 -0.061094 123 131 180
-0.016312 0.005577 0.956847 236 18 180
-0.651632 -0.315624 -0.754003 46 208 180
0.643842 0.825556 0.053435 136 118 180
0.179799 0.231859 -0.865146 34 220 180
-0.941593 0.278420 0.059646 136 118 180
-0.661745 -0.701374 0.285012 161 93 180
0.388891 -0.888835 0.411507 175 79 180
0.198670 -0.745604 0.708655 208 46 180
0.001264 -0.023228 -1.011948 17 237 180
0.611699 -0.314948 0.596220 196 58 180
-0.586548 -0.259073 -0.678542 54 200 180
-0.625942 -0.662979 0.577487 194 60 180
-0.002706 -0.485885 0.842314 223 31 180
0.186415 -0.168178 1.016894 243 11 180
0.591702 0.534604 0.692811 207 47 180
0.110656 0.848717 -0.434041 81 173 180
0.030257 0.056470 -1.007115 18 236 180
0.170029 -0.052267 0.968223 237 17 180
-0.685006 0.036828 -0.752224 46 208 180
0.744842 -0.122509 0.718602 209 45 180
0.645278 -0.665343 -0.533651 70 184 180
-0.373983 0.525636 -0.742391 47 207 180
-0.764320 -0.352729 0.587781 195 59 180
-0.526245 0.406514 -0.813592 39 215 180
-0.220151 0.540666 0.769394 215 39 180
0.040398 -0.015335 1.005126 241 13 180
-0.294569 0.041719 0.916397 231 23 180
-0.614059 -0.111536 0.683162 205 49 180
0.287777 -0.274834 0.808067 219 35 180
0.196233 0.202307 1.016070 242 12 180
-0.472065 -0.794040 0.284590 161 93 180
-0.462626 0.891894 -0.347050 91 163 180
0.515107 -0.755708 0.390525 173 81 180
0.195000 -0.393160 -0.888329 31 223 180
0.914007 -0.437851 -0.093878 119 135 180
-0.258800 0.069633 -0.921297 27 227 180
0.705839 -0.631795 0.423295 177 77 180
0.137937 0.003623 -0.985686 20 234 180
-0.561198 -0.269189 0.796232 218 36 180
0.083385 0.451925 0.946463 235 19 180
-0.256220 0.217617 -0.912712 28 226 180
-0.935093 -0.230129 -0.439163 81 173 180
0.264838 0.848971 0.483387 183 71 180
-0.025888 0.226530 1.028246 244 10 180
0.398456 0.770903 0.345394 168 86 180
-0.916512 0.162360 0.212932 153 101 180
-0.415981 0.265998 -0.826129 38 216 180
-0.838821 -0.444701 0.060277 136 118 180
0.415620 -0.607380 -0.713152 50 204 180
0.338542 0.103064 0.896805 229 25 180
0.016979 -0.132971 -0.952121 24 230 180
-0.387785 0.508706 0.681867 205 49 180
-0.334274 -0.545045 0.763152 214 40 180
-0.235513 -0.975961 0.151592 146 108 180
0.753462 0.598422 -0.116997 117 137 180
-0.797604 -0.500829 0.350545 169 85 180
0.578877 -0.345111 0.707461 208 46 180
-0.056650 0.034596 0.982969 239 15 180
0.254123 0.200148 0.965256 237 17 180
0.645293 0.069903 -0.753449 46 208 180
0.838490 0.157844 0.296760 163 91 180
0.374058 0.933021 -0.057344 123 131 180
-0.163152 -0.714844 0.720069 210 44 180
0.124221 0.248042 0.885019 228 26 180
0.406990 0.090671 0.933102 233 21 180
0.974381 0.025292 0.206183 152 102 180
-1.014018 -0.189688 0.024248 132 122 180
-0.003156 -0.923408 0.212328 153 101 180
-0.688321 -0.190101 0.657760 203 51 180
-0.549770 0.385934 0.704851 208 46 180
-0.009459 -0.059558 -0.968520 22 232 180
0.488042 -0.340497 -0.812900 39 215 180
0.061216 0.788846 0.556327 191 63 180
-0.109389 0.014560 -0.953858 24 230 180
-0.038488 -0.071688 0.956493 236 18 180
-0.178288 0.615414 -0.777778 43 211 180
-0.734535 -0.483551 0.280136 161 93 180
0.040399 0.152794 -0.973331 21 233 180
-0.010140 -0.161096 0.936836 234 20 180
-0.617676 0.751388 -0.126608 116 138 180
0.643695 0.325524 -0.629411 60 194 180
0.675294 0.178430 0.734212 211 43 180
-0.584724 0.661193 0.108200 142 112 180
-0.313896 0.612281 0.754637 213 41 180
0.447624 0.867627 -0.170200 111 143 180
-0.285062 0.627703 -0.705126 51 203 180
-0.243976 -0.771436 -0.683768 54 200 180
0.536766 0.022276 0.822180 221 33 180
0.307712 -0.592252 -0.755197 46 208 180
0.831271 0.075030 -0.349319 91 163 180
-0.421873 -0.767349 -0.415834 83 171 180
0.690976 -0.236395 0.537403 189 65 180
-0.547047 -0.591498 -0.568790 66 188 180
-0.306166 0.177734 0.987188 239 15 180
0.229806 0.572936 -0.781328 43 211 180
-0.673174 0.070125 -0.712752 50 204 180
-0.911897 -0.061358 0.327186 166 88 180
-0.452704 -0.673941 0.420157 176 78 180
0.693654 -0.518051 -0.580633 65 189 180
0.209681 0.088274 0.990237 240 14 180
-0.350188 0.936915 0.115052 142 112 180
0.422643 -0.200675 -0.850267 35 219 180
-0.942643 0.008979 0.077661 138 116 180
0.889129 0.574667 0.045028 135 119 180
-0.130907 -0.145332 0.924066 232 22 180
-0.797918 -0.608280 -0.090546 120 134 180
-0.695580 0.633437 -0.347346 91 163 180
0.713837 0.379509 0.590771 195 59 180
0.807386 -0.482772 -0.191641 108 146 180
0.431696 -0.792172 0.373627 171 83 180
0.266156 -0.020926 -1.049820 13 241 180
0.439666 0.298005 0.816453 220 34 180
0.708177 0.383258 0.530208 188 66 180
-0.012186 0.508575 -0.819484 39 215 180
0.121200 0.007342 -1.031518 15 239 180
0.899167 0.023170 0.214487 153 101 180
-0.889287 -0.012640 -0.335084 92 162 180
0.226631 -0.817104 0.550086 191 63 180
-0.423197 -0.120865 -0.792879 42 212 180
0.263781 0.517302 0.779413 216 38 180
0.041860 -0.451938 0.890707 229 25 180
0.425994 -0.093114 -1.003844 18 236 180
-0.769658 0.263883 -0.719410 50 204 180
0.197110 -0.412479 0.888145 228 26 180
0.067979 0.926084 -0.191043 108 146 180
-0.887474 0.040155 -0.531489 71 183 180
0.074163 -0.750148 -0.728935 49 205 180
-0.484969 -0.707491 0.139536 145 109 180
-0.044042 -0.861387 0.508029 186 68 180
-0.411002 -0.766125 -0.500157 74 180 180
-0.254847 0.654824 -0.822700 38 216 180
0.415920 0.671436 0.677137 205 49 180
-0.338708 0.044229 -0.850057 35 219 180
-0.408561 -0.827501 0.314566 165 89 180
-0.672378 0.408292 0.627743 199 55 180
0.486756 0.905674 0.051741 135 119 180
0.103883 0.042488 -1.030104 15 239 180
-0.347694 0.910637 0.058398 136 118 180
-0.191165 -0.337785 0.802968 219 35 180
-0.607461 -0.129033 -0.741172 47 207 180
0.011282 -0.584573 0.794487 218 36 180
0.164238 0.069219 0.967673 237 17 180
0.237892 0.309272 0.996938 240 14 180
-0.045483 0.708957 0.603321 197 57 180
0.978506 0.097499 -0.347970 91 163 180
0.969407 -0.017526 -0.488356 75 179 180
-0.132384 -0.904661 -0.003101 129 125 180
0.418448 -0.007451 -0.854523 35 219 180
0.307336 0.079011 -0.977893 21 233 180
0.150307 -0.177493 1.069609 248 6 180
-0.741701 0.046096 0.664542 203 51 180
-0.805759 -0.662901 0.106975 141 113 180
-0.702564 0.517934 0.239964 156 98 180
-0.908652 -0.123148 -0.363179 89 165 180
0.152417 -0.952164 0.247208 157 97 180
0.015886 0.077827 -1.072328 10 244 180
-0.310994 -0.386588 0.936158 234 20 180
-0.785591 0.618517 -0.428627 82 172 180
0.319966 -0.834114 -0.404201 85 169 180
0.352293 -0.408589 0.917256 231 23 180
-0.307690 0.228242 -0.846393 36 218 180
0.985580 0.250977 -0.176205 110 144 180
-0.259531 0.108238 -0.921739 27 227 180
0.849206 0.123443 0.433268 178 76 180
0.142633 -0.197568 -1.004808 18 236 180
0.115740 -0.450985 -0.949868 24 230 180
0.176343 -0.341973 -0.838731 36 218 180
0.338608 0.455206 0.811418 220 34 180
0.286831 -0.614112 -0.800742 41 213 180
-0.711412 0.002499 0.662684 203 51 180
0.051591 0.129548 1.036704 245 9 180
0.108805 0.066577 0.963188 237 17 180
-0.489067 -0.608811 -0.602446 63 191 180
0.171406 -0.912656 0.321887 165 89 180
-0.161719 -0.680803 -0.751232 46 208 180
0.533498 -0.214612 -0.816568 39 215 180
0.183617 0.667099 -0.693571 53 201 180
0.472061 0.833446 0.323682 166 88 180
0.012300 0.464863 0.919013 232 22 180
-0.303955 -0.121773 -1.018172 17 237 180
-0.157863 0.391235 0.882604 228 26 180
0.816382 0.522189 -0.129426 115 139 180
-0.402987 0.567115 -0.779097 43 211 180
-0.925330 -0.141742 -0.068524 122 132 180
0.871233 0.127869 -0.199261 107 147 180
0.074419 -0.000688 -1.019162 16 238 180
-0.953620 -0.260928 -0.053753 124 130 180
-0.866625 -0.369751 0.227804 155 99 180
-0.136128 -0.099448 -1.031251 15 239 180
0.978977 -0.253911 0.064622 137 117 180
-0.620230 -0.874852 0.258553 158 96 180
-0.178955 0.935000 0.053933 136 118 180
0.817212 0.411417 0.325967 166 88 180
0.305890 0.029527 -0.961350 23 231 180
-0.326443 -0.295200 0.892934 229 25 180
-0.714611 -0.358015 0.659697 203 51 180
-0.758644 -0.543089 -0.138733 114 140 180
0.153207 -0.058157 0.909811 231 23 180
0.867758 -0.494333 -0.353061 90 164 180
-0.126463 -0.001605 -1.022585 16 238 180
0.663683 -0.675660 0.374494 171 83 180
-0.086269 0.608934 0.850524 224 30 180
0.271041 0.705488 -0.589438 64 190 180
0.090877 0.764095 0.508168 186 68 180
-0.597535 -0.496245 0.604758 197 57 180
0.740198 0.438904 -0.567274 67 187 180
0.319440 0.357335 -0.856988 34 220 180
-0.097384 -0.868230 0.224572 155 99 180
-0.392435 0.542270 0.771898 215 39 180
-0.081757 -0.032209 1.010776 242 12 180
0.750968 -0.526982 0.194096 151 103 180
0.190015 -0.280974 1.031613 244 10 180
0.811786 -0.451666 0.336150 167 87 180
-0.055629 -0.154526 0.933889 233 21 180
-0.549105 0.326135 0.731340 211 43 180
0.219171 0.100502 -0.935786 26 228 180
0.367236 0.455929 -0.789589 42 212 180
