0.398478 -0.674948 -1.000000 160 160 160
0.406378 -0.249494 -1.000000 217 217 217
-0.154363 -0.055710 1.000000 250 250 250
0.448955 1.000000 -0.962307 94 94 94
-1.000000 -0.273120 0.903025 123 123 123
0.470442 1.000000 -0.226237 210 210 210
-1.000000 -0.276444 -0.077880 240 240 240
0.942699 0.966797 -1.000000 16 16 16
-1.000000 -0.430871 -0.766285 138 138 138
-0.262255 1.000000 0.386271 218 218 218
0.748192 0.622195 1.000000 116 116 116
0.294744 0.016986 1.000000 240 240 240
-0.293654 -1.000000 -0.862290 131 131 131
0.561691 -0.792479 1.000000 116 116 116
1.000000 0.736871 -0.659921 112 112 112
-1.000000 0.290781 0.023018 240 240 240
1.000000 0.977543 -0.771567 45 45 45
-0.544137 -0.544116 1.000000 163 163 163
0.047117 -1.000000 0.996332 110 110 110
-1.000000 -0.562717 0.439887 174 174 174
0.697634 1.000000 -0.432271 152 152 152
-0.836298 -0.949862 1.000000 40 40 40
0.288571 -1.000000 -0.165511 236 236 236
-0.191773 -0.410927 -1.000000 220 220 220
0.836942 1.000000 -0.616461 100 100 100
-0.213771 0.441208 1.000000 215 215 215
1.000000 -0.250542 -0.783479 151 151 151
0.902501 0.384218 1.000000 114 114 114
0.049988 -1.000000 -0.647014 187 187 187
-0.496958 -1.000000 0.402655 189 189 189
-0.385675 -0.040136 -1.000000 229 229 229
-0.038126 -0.340910 -1.000000 234 234 234
-1.000000 -0.930365 -0.524080 92 92 92
-0.993918 1.000000 0.173327 107 107 107
1.000000 0.173216 0.436690 218 218 218
-0.904325 0.742118 -1.000000 66 66 66
-1.000000 0.297707 -0.106912 237 237 237
1.000000 0.190382 0.834170 144 144 144
-1.000000 0.352872 0.282204 220 220 220
-0.316912 1.000000 0.349449 217 217 217
0.731536 -0.702721 1.000000 106 106 106
0.854365 -0.408525 -1.000000 122 122 122
-0.744845 1.000000 -0.830526 80 80 80
0.006424 0.156750 1.000000 250 250 250
1.000000 0.743226 -0.737687 98 98 98
-0.151522 1.000000 0.768615 160 160 160
-0.948993 1.000000 -0.691695 64 64 64
-0.609854 0.883407 1.000000 91 91 91
-0.415120 1.000000 -0.420594 198 198 198
1.000000 -0.288154 -0.405791 214 214 214
-0.299780 0.242313 -1.000000 229 229 229
0.876539 1.000000 0.378970 120 120 120
0.363532 1.000000 0.906857 115 115 115
-1.000000 0.709415 -0.811422 90 90 90
-0.940822 -0.279031 -1.000000 114 114 114
1.000000 0.067732 -0.964364 118 118 118
-0.186076 0.657379 -1.000000 181 181 181
1.000000 -0.962185 -0.384147 100 100 100
-0.737068 -0.012741 1.000000 170 170 170
-0.082768 0.428658 1.000000 223 223 223
-1.000000 -0.837045 -0.276760 138 138 138
-1.000000 -0.640339 -0.589785 140 140 140
0.372767 0.195007 -1.000000 225 225 225
0.226305 -1.000000 0.095283 244 244 244
0.492224 -1.000000 0.834763 117 117 117
0.942075 -1.000000 0.380204 105 105 105
-0.025554 -0.170182 -1.000000 249 249 249
0.041741 -1.000000 -0.185800 248 248 248
-0.748211 -0.111323 1.000000 166 166 166
0.181407 1.000000 0.586862 194 194 194
-1.000000 0.969998 -0.010234 117 117 117
0.458893 1.000000 0.745465 139 139 139
-0.035327 0.193886 -1.000000 248 248 248
-1.000000 -0.006563 -0.159121 250 250 250
-0.519050 1.000000 0.302944 196 196 196
0.766528 1.000000 -0.080729 163 163 163
-0.353219 -0.844176 1.000000 130 130 130
-0.135159 1.000000 -0.977630 113 113 113
0.510740 -0.544921 1.000000 168 168 168
0.361798 0.408464 1.000000 206 206 206
-0.650912 1.000000 -0.059461 186 186 186
-1.000000 -0.566894 0.697887 134 134 134
-0.943930 0.050200 1.000000 123 123 123
1.000000 -0.951979 0.373293 104 104 104
-0.544518 -0.890284 -1.000000 98 98 98
-1.000000 -0.015046 0.044380 254 254 254
-0.088984 -0.880229 1.000000 137 137 137
-1.000000 0.014734 0.547449 205 205 205
-1.000000 -0.278222 -0.937761 115 115 115
-0.985073 -1.000000 0.275460 104 104 104
0.086867 0.282970 -1.000000 239 239 239
-1.000000 0.170885 -0.751520 163 163 163
-1.000000 0.086493 -0.842174 146 146 146
0.673121 1.000000 -0.161139 179 179 179
0.294602 -1.000000 0.333505 221 221 221
-0.835994 0.462175 -1.000000 120 120 120
0.290131 -1.000000 0.144094 237 237 237
1.000000 -0.680807 0.900671 76 76 76
-1.000000 -0.979623 0.156182 111 111 111
0.848554 0.826061 1.000000 62 62 62
0.494463 1.000000 -0.138994 211 211 211
-0.137663 -1.000000 0.981630 112 112 112
0.184308 1.000000 -0.199174 242 242 242
0.082749 1.000000 0.590483 197 197 197
-1.000000 0.417196 -0.802377 132 132 132
-0.610602 -1.000000 0.057690 194 194 194
-0.511518 -0.506485 1.000000 173 173 173
0.479866 0.559109 1.000000 170 170 170
0.164917 0.052598 1.000000 249 249 249
-0.639731 -0.694735 1.000000 123 123 123
1.000000 0.963201 0.031535 118 118 118
-1.000000 0.443365 -0.953947 96 96 96
-1.000000 -0.368124 0.034961 231 231 231
1.000000 0.483716 0.047274 215 215 215
0.218312 0.089991 1.000000 245 245 245
-1.000000 0.196917 0.545177 200 200 200
0.546190 0.970773 -1.000000 80 80 80
-1.000000 0.717502 -0.287608 162 162 162
1.000000 -0.842219 0.578695 104 104 104
1.000000 -0.851086 -0.052605 144 144 144
-1.000000 -0.768300 -0.824280 77 77 77
1.000000 -0.911053 -0.396280 111 111 111
-1.000000 -0.092608 0.381687 228 228 228
0.053442 1.000000 -0.500492 213 213 213
1.000000 -0.199854 0.323630 230 230 230
0.044339 0.556145 -1.000000 204 204 204
1.000000 0.635578 0.724599 118 118 118
-0.422443 0.567424 -1.000000 176 176 176
0.690188 -1.000000 0.303007 166 166 166
-0.176427 -1.000000 0.678511 177 177 177
1.000000 -0.632704 -0.711354 121 121 121
0.965326 1.000000 0.503216 87 87 87
-0.045441 -1.000000 -0.304573 238 238 238
-1.000000 0.907555 -0.169120 128 128 128
0.335254 -0.855234 1.000000 129 129 129
-0.898834 -1.000000 -0.910051 36 36 36
-0.265221 1.000000 -0.222126 234 234 234
0.602042 -0.135294 1.000000 193 193 193
0.069933 1.000000 0.956973 119 119 119
1.000000 -0.630983 -0.256625 181 181 181
0.727634 1.000000 -0.117483 170 170 170
-0.716001 -0.841904 -1.000000 83 83 83
1.000000 0.250036 -0.000654 244 244 244
1.000000 -0.367336 0.604591 176 176 176
-0.909992 -1.000000 -0.399132 111 111 111
-0.924309 0.117276 1.000000 126 126 126
0.054136 -0.911456 1.000000 130 130 130
0.154837 1.000000 0.278162 237 237 237
-1.000000 0.541571 0.153858 203 203 203
0.194877 0.401884 -1.000000 221 221 221
1.000000 -0.578538 0.224636 193 193 193
-1.000000 -0.380158 -0.142472 227 227 227
-1.000000 0.504823 -0.645066 152 152 152
-0.805067 1.000000 0.271862 145 145 145
-0.484672 1.000000 -0.077220 215 215 215
-0.087909 -0.504124 -1.000000 211 211 211
-0.117395 0.748856 1.000000 165 165 165
0.061331 0.635833 -1.000000 189 189 189
-1.000000 0.029609 -0.151020 250 250 250
0.939120 0.459892 -1.000000 98 98 98
-0.600976 -0.463933 1.000000 165 165 165
0.779647 -1.000000 0.096472 159 159 159
-1.000000 0.445439 0.743270 141 141 141
-1.000000 -0.363982 -0.820533 134 134 134
0.032682 -1.000000 -0.992111 111 111 111
-0.084817 0.670927 -1.000000 182 182 182
-1.000000 0.607188 0.266153 185 185 185
1.000000 -0.899281 0.947629 28 28 28
-0.621889 1.000000 0.284547 180 180 180
-0.569836 -0.239320 1.000000 193 193 193
1.000000 0.153837 0.206178 243 243 243
1.000000 -0.747349 -0.779854 89 89 89
-0.125733 -1.000000 0.655328 184 184 184
0.908370 -1.000000 0.259766 123 123 123
-0.850598 0.400504 1.000000 124 124 124
-0.808381 0.727242 1.000000 87 87 87
-1.000000 0.504375 0.043566 212 212 212
1.000000 0.015174 -0.637896 189 189 189
0.081692 -1.000000 -0.238658 244 244 244
0.560244 1.000000 -0.349255 185 185 185
0.421885 0.573012 1.000000 175 175 175
-0.177331 0.190340 1.000000 243 243 243
-1.000000 -0.290074 0.987981 102 102 102
-1.000000 0.959040 -0.111554 118 118 118
1.000000 0.381768 0.120786 227 227 227
1.000000 -0.879985 -0.787087 63 63 63
0.134872 -1.000000 0.636771 187 187 187
0.870660 0.916079 1.000000 40 40 40
-0.363051 1.000000 0.009207 232 232 232
0.187119 -1.000000 0.454982 214 214 214
0.038636 -0.854242 -1.000000 144 144 144
-1.000000 -0.522558 -0.601647 157 157 157
0.785800 1.000000 0.634557 107 107 107
-0.976934 0.168305 -1.000000 112 112 112
0.232809 1.000000 0.982511 107 107 107
1.000000 0.134440 0.948307 120 120 120
0.783435 -1.000000 0.943088 51 51 51
0.709043 -0.487369 1.000000 143 143 143
0.521464 -0.846106 -1.000000 111 111 111
-1.000000 -0.439754 -0.593698 169 169 169
0.487709 -0.089560 1.000000 214 214 214
0.982040 -1.000000 0.007402 114 114 114
-1.000000 -0.797850 0.946323 47 47 47
-0.173121 0.146477 -1.000000 246 246 246
0.572651 0.282248 -1.000000 189 189 189
1.000000 -0.719543 0.359879 155 155 155
-0.330613 -1.000000 -0.336028 218 218 218
0.345987 -0.963062 -1.000000 104 104 104
0.049183 1.000000 0.599395 196 196 196
-0.600959 0.096811 -1.000000 195 195 195
-0.646371 0.168375 -1.000000 184 184 184
1.000000 0.052661 0.638935 189 189 189
-0.217131 1.000000 -0.673332 176 176 176
0.457902 0.183857 -1.000000 214 214 214
-0.936998 -0.454539 -1.000000 99 99 99
0.028161 -1.000000 0.804495 155 155 155
-1.000000 -0.548757 -0.010726 205 205 205
1.000000 0.991281 -0.085803 111 111 111
1.000000 0.197896 0.304051 232 232 232
0.268246 1.000000 -0.174580 237 237 237
-1.000000 0.588048 0.911520 88 88 88
0.498398 -1.000000 0.775609 128 128 128
-0.948890 0.009193 1.000000 122 122 122
0.068018 0.766185 1.000000 163 163 163
-0.034237 -0.335306 -1.000000 235 235 235
-0.559807 0.041838 1.000000 203 203 203
0.575799 0.364805 -1.000000 181 181 181
-0.151922 -0.228318 1.000000 242 242 242
0.012668 1.000000 0.118881 252 252 252
-0.685406 1.000000 0.643601 124 124 124
-1.000000 0.977207 -0.107327 114 114 114
-0.979052 -0.443569 -1.000000 91 91 91
-1.000000 0.791665 -0.017087 158 158 158
0.542806 -1.000000 -0.679516 141 141 141
-1.000000 0.382601 -0.300327 215 215 215
-0.080556 0.478632 -1.000000 215 215 215
0.904772 0.300532 -1.000000 121 121 121
0.025231 0.734770 -1.000000 170 170 170
0.546098 -0.999609 -1.000000 74 74 74
0.444325 0.745731 -1.000000 141 141 141
-0.441807 -1.000000 0.927218 103 103 103
-0.275368 -0.285975 -1.000000 228 228 228
-0.105171 -1.000000 -0.391573 227 227 227
0.971718 -0.413468 1.000000 95 95 95
0.581647 1.000000 0.753121 121 121 121
-0.149943 -1.000000 0.817891 149 149 149
-0.698741 0.648777 -1.000000 121 121 121
1.000000 -0.400526 -0.802335 134 134 134
1.000000 0.571538 -0.701511 132 132 132
0.273687 0.102024 -1.000000 240 240 240
-0.620378 1.000000 -0.792735 108 108 108
-0.195862 0.359878 -1.000000 226 226 226
0.790140 -0.435587 -1.000000 133 133 133
0.976036 1.000000 -0.591521 73 73 73
0.702973 1.000000 -0.372798 157 157 157
0.582376 0.329078 1.000000 183 183 183
-0.022770 -1.000000 -0.558870 203 203 203
-1.000000 -0.804851 -0.710531 91 91 91
-0.186744 -1.000000 -0.861281 138 138 138
0.172670 1.000000 -0.532312 203 203 203
1.000000 -0.159709 0.332587 231 231 231
-0.096507 -0.489716 1.000000 213 213 213
-0.329008 1.000000 -0.260365 225 225 225
0.058986 1.000000 -0.679400 181 181 181
0.619441 -0.693481 -1.000000 126 126 126
-0.637103 -1.000000 0.548865 147 147 147
-0.732440 -0.311494 -1.000000 157 157 157
0.334172 0.437007 1.000000 205 205 205
0.720974 -0.122410 1.000000 171 171 171
-0.988421 -0.339565 -1.000000 98 98 98
-1.000000 0.940035 -0.936228 23 23 23
-0.298609 1.000000 0.169497 234 234 234
-0.799363 0.689911 1.000000 95 95 95
-0.997588 1.000000 0.879210 22 22 22
0.372975 0.227112 -1.000000 223 223 223
-1.000000 -0.476972 0.874620 110 110 110
-0.673612 0.756683 1.000000 106 106 106
0.980679 0.181400 -1.000000 110 110 110
-0.693010 -1.000000 -0.354634 161 161 161
0.463945 1.000000 -0.857032 116 116 116
1.000000 -0.848543 -0.850704 57 57 57
1.000000 -0.058279 -0.451489 220 220 220
1.000000 -0.330942 -0.543026 190 190 190
-0.933690 1.000000 0.226078 119 119 119
-0.720453 -0.257215 1.000000 164 164 164
0.800199 1.000000 -0.392187 136 136 136
1.000000 -0.097887 -0.792006 157 157 157
-0.969688 0.664291 -1.000000 64 64 64
0.144794 0.287715 -1.000000 237 237 237
-0.175774 -1.000000 0.876297 135 135 135
1.000000 -0.457927 -0.009289 220 220 220
0.728989 -1.000000 0.235285 164 164 164
1.000000 0.560400 -0.851235 105 105 105
1.000000 -0.728100 0.090131 170 170 170
-1.000000 -0.327992 -0.127302 233 233 233
-1.000000 0.299401 -0.818451 140 140 140
-1.000000 0.471227 0.134733 215 215 215
0.240880 -1.000000 0.592488 189 189 189
-0.906837 -1.000000 -0.511093 99 99 99
-0.912618 0.883335 -1.000000 39 39 39
0.561410 1.000000 -0.027361 203 203 203
-1.000000 -0.029672 0.821561 151 151 151
0.332703 -0.434901 -1.000000 205 205 205
-1.000000 -0.882782 0.664231 83 83 83
1.000000 0.809984 -0.498033 121 121 121
-1.000000 0.211236 0.502472 206 206 206
-0.483204 0.167980 -1.000000 211 211 211
0.966756 1.000000 -0.142176 115 115 115
0.509133 1.000000 -0.934958 93 93 93
-0.654963 -0.244948 -1.000000 177 177 177
-0.649561 0.423997 1.000000 161 161 161
0.234942 -1.000000 -0.982614 107 107 107
1.000000 -0.469654 0.336874 200 200 200
0.080950 1.000000 -0.002655 253 253 253
-0.503593 -1.000000 0.693715 143 143 143
1.000000 0.005110 0.231896 245 245 245
-1.000000 0.173462 0.181078 244 244 244
-0.807769 1.000000 0.221402 148 148 148
0.923638 0.123057 -1.000000 126 126 126
0.142137 0.703302 -1.000000 174 174 174
-0.810215 0.701056 -1.000000 91 91 91
0.459315 1.000000 -0.236923 210 210 210
-0.079649 -0.053773 -1.000000 253 253 253
-1.000000 0.035993 -0.057858 254 254 254
0.674069 0.677255 1.000000 120 120 120
0.614424 1.000000 0.812943 105 105 105
-0.266462 0.587956 -1.000000 188 188 188
0.810921 -0.273895 -1.000000 144 144 144
0.820977 -0.936703 -1.000000 45 45 45
-0.605646 0.723438 1.000000 123 123 123
1.000000 -0.547525 0.687480 138 138 138
0.418457 1.000000 -0.646058 163 163 163
0.736752 -0.015601 1.000000 170 170 170
1.000000 0.942291 -0.561882 85 85 85
1.000000 -0.859078 -0.215837 137 137 137
-0.560819 1.000000 -0.999846 72 72 72
-0.319677 0.037670 -1.000000 237 237 237
-1.000000 0.693936 -0.060429 178 178 178
1.000000 0.665263 -0.496343 150 150 150
-1.000000 -0.568398 -0.781552 118 118 118
-0.744398 -0.609906 1.000000 119 119 119
1.000000 0.477849 -0.580900 166 166 166
-1.000000 0.254298 0.771323 154 154 154
0.336939 -0.293202 -1.000000 221 221 221
-1.000000 -0.905821 -0.156867 129 129 129
0.197646 -1.000000 0.022976 248 248 248
1.000000 0.635774 -0.426983 164 164 164
0.953121 0.063736 -1.000000 120 120 120
-0.263169 0.075535 1.000000 242 242 242
1.000000 -0.791634 -0.090377 157 157 157
-1.000000 0.002685 0.550045 205 205 205
0.992554 1.000000 0.759429 44 44 44
-0.413954 1.000000 0.872485 118 118 118
-0.796623 0.948456 -1.000000 47 47 47
-0.744110 0.151561 1.000000 165 165 165
1.000000 0.853951 0.070986 143 143 143
0.167246 -1.000000 -0.038067 249 249 249
-0.543992 1.000000 -0.846677 108 108 108
1.000000 -0.985895 -0.843796 31 31 31
-0.588938 -0.222904 1.000000 191 191 191
1.000000 -0.862423 0.200161 137 137 137
-1.000000 -0.818075 0.682152 93 93 93
-0.804993 -1.000000 -0.160123 152 152 152
-0.971930 0.471294 -1.000000 89 89 89
-0.877502 0.485235 1.000000 109 109 109
-0.463538 -0.336928 1.000000 201 201 201
0.747874 -0.438018 1.000000 141 141 141
0.960374 1.000000 -0.056752 119 119 119
-0.443728 -0.894799 -1.000000 110 110 110
0.756487 1.000000 -0.619505 115 115 115
1.000000 0.934081 -0.108944 124 124 124
-0.106647 -1.000000 -0.899013 132 132 132
0.543982 1.000000 -0.001466 206 206 206
-0.006625 -0.337648 1.000000 235 235 235
-1.000000 0.636257 -0.039947 189 189 189
0.334319 -1.000000 -0.117179 233 233 233
1.000000 -0.879701 0.171802 134 134 134
0.985671 -1.000000 0.247602 105 105 105
0.655415 0.651205 -1.000000 128 128 128
1.000000 -0.596472 -0.622777 142 142 142
-0.695443 -0.295261 -1.000000 166 166 166
0.426358 1.000000 -0.732245 146 146 146
0.156149 1.000000 0.239023 241 241 241
0.689503 -0.807378 1.000000 94 94 94
-0.739621 0.932705 -1.000000 60 60 60
1.000000 -0.700581 -0.716674 109 109 109
1.000000 -0.007872 -0.992801 111 111 111
-0.263296 1.000000 0.690605 169 169 169
-0.011856 1.000000 -0.565853 202 202 202
-1.000000 0.644150 0.515804 151 151 151
1.000000 0.961577 0.099783 118 118 118
0.366473 0.272612 1.000000 220 220 220
-0.056671 0.438992 -1.000000 222 222 222
-0.882013 0.219675 1.000000 131 131 131
0.495236 -1.000000 0.695167 144 144 144
0.945100 -1.000000 -0.457208 97 97 97
1.000000 0.106974 0.843197 145 145 145
0.881237 -1.000000 -0.580062 96 96 96
0.267848 0.547803 1.000000 195 195 195
1.000000 -0.959362 -0.439917 95 95 95
0.443092 -0.174135 1.000000 217 217 217
0.799825 0.883601 1.000000 60 60 60
-0.783514 -0.268147 -1.000000 150 150 150
0.793968 -0.205279 -1.000000 152 152 152
1.000000 0.599649 -0.234823 188 188 188
-0.084487 0.560313 -1.000000 202 202 202
0.853871 -1.000000 0.076686 143 143 143
1.000000 -0.477193 0.881072 109 109 109
0.929113 -0.696473 1.000000 68 68 68
1.000000 0.788275 0.626356 108 108 108
0.054179 -1.000000 -0.007436 254 254 254
-1.000000 -0.050364 -0.797463 156 156 156
1.000000 0.826898 -0.242937 142 142 142
-0.001654 0.932956 1.000000 126 126 126
0.690128 1.000000 -0.913045 72 72 72
1.000000 -0.400937 -0.745576 146 146 146
0.290641 -0.298235 1.000000 225 225 225
-1.000000 0.476444 -0.691241 147 147 147
0.553140 -1.000000 0.619164 149 149 149
1.000000 0.633469 0.376837 170 170 170
-1.000000 0.106269 -0.200724 246 246 246
0.253257 -0.253129 1.000000 233 233 233
-0.139006 -1.000000 0.287135 237 237 237
0.693368 -0.321853 -1.000000 164 164 164
0.642673 -0.817972 -1.000000 99 99 99
0.819888 -1.000000 0.909652 51 51 51
1.000000 0.691794 0.996803 54 54 54
-1.000000 -0.519554 -0.759954 129 129 129
-0.671081 0.218452 1.000000 176 176 176
0.812806 -0.602696 1.000000 106 106 106
0.952670 -0.684489 1.000000 65 65 65
-0.392602 -1.000000 0.503739 189 189 189
-1.000000 -0.757786 -0.501644 131 131 131
1.000000 -0.316250 0.974637 103 103 103
-0.317695 0.916958 1.000000 117 117 117
1.000000 -0.409347 -0.420042 199 199 199
0.643714 -0.216531 -1.000000 181 181 181
-1.000000 0.147176 -0.677880 178 178 178
0.125985 1.000000 -0.208382 244 244 244
1.000000 -0.845589 -0.301621 134 134 134
-0.701224 0.244862 1.000000 168 168 168
0.417448 -0.109981 1.000000 223 223 223
-1.000000 0.257836 -0.583888 189 189 189
0.947135 -0.556316 -1.000000 84 84 84
-1.000000 0.100638 -0.539044 205 205 205
-0.300562 -1.000000 -0.600803 183 183 183
0.823175 -0.919986 1.000000 48 48 48
-0.303378 -1.000000 -0.199938 232 232 232
0.537792 -1.000000 0.292516 194 194 194
-0.699909 1.000000 0.961849 60 60 60
0.209677 -0.902924 1.000000 127 127 127
0.118240 0.630752 -1.000000 189 189 189
0.555087 -0.768642 -1.000000 122 122 122
0.508745 -1.000000 0.177463 207 207 207
-0.981565 0.947024 -1.000000 12 12 12
-0.637102 1.000000 -0.741801 115 115 115
0.466330 1.000000 0.944920 96 96 96
0.705022 -1.000000 -0.628096 123 123 123
-1.000000 0.130917 0.546166 203 203 203
-1.000000 0.148854 -0.566267 199 199 199
0.420333 0.445203 -1.000000 194 194 194
-0.739549 1.000000 0.831724 81 81 81
1.000000 0.754313 -0.784139 87 87 87
-0.410468 0.486426 -1.000000 190 190 190
0.013917 1.000000 0.407660 226 226 226
1.000000 0.437923 0.959164 96 96 96
-1.000000 -0.626863 -0.748308 115 115 115
0.660735 1.000000 -0.186880 180 180 180
0.656176 -0.420884 1.000000 161 161 161
0.667356 1.000000 -0.002821 184 184 184
0.901767 -0.051795 1.000000 133 133 133
0.408575 1.000000 -0.560258 179 179 179
0.270226 -0.522433 1.000000 198 198 198
1.000000 -0.429875 0.445657 193 193 193
1.000000 -0.845854 0.189509 141 141 141
-1.000000 -0.981301 0.717315 53 53 53
0.254407 1.000000 0.330770 225 225 225
0.762658 1.000000 0.850279 73 73 73
-0.143796 -0.469918 -1.000000 214 214 214
1.000000 -0.090330 -0.074648 252 252 252
-1.000000 0.638399 0.718750 119 119 119
0.210701 0.658327 -1.000000 179 179 179
0.610001 0.765419 -1.000000 115 115 115
0.585719 -1.000000 0.559195 154 154 154
1.000000 -0.885701 0.888425 43 43 43
1.000000 -0.648427 -0.246387 178 178 178
-0.914011 -0.357831 -1.000000 114 114 114
0.818936 1.000000 -0.427482 128 128 128
-0.124547 1.000000 0.482863 213 213 213
-1.000000 -0.664086 0.196683 179 179 179
-0.484751 -0.513694 1.000000 176 176 176
-1.000000 -0.372124 -0.383292 208 208 208
0.255263 1.000000 0.573923 191 191 191
0.719889 -0.407538 1.000000 150 150 150
0.321097 0.349807 -1.000000 217 217 217
-0.538742 -1.000000 -0.468867 174 174 174
1.000000 0.840703 0.496571 115 115 115
-0.641217 0.729669 -1.000000 116 116 116
0.759135 1.000000 -0.662676 107 107 107
-0.864281 1.000000 0.671773 85 85 85
-1.000000 0.853246 0.476564 115 115 115
-0.120644 0.321217 1.000000 234 234 234
-1.000000 -0.731802 -0.763615 95 95 95
-0.726769 0.803745 1.000000 88 88 88
0.919806 1.000000 0.672418 74 74 74
1.000000 -0.344410 0.143826 231 231 231
0.883968 -0.408080 -1.000000 116 116 116
-1.000000 -0.547492 0.602656 153 153 153
0.468862 -0.795115 -1.000000 128 128 128
0.851672 1.000000 -0.620617 96 96 96
1.000000 0.064964 -0.363721 231 231 231
-0.450097 0.742783 1.000000 141 141 141
0.327252 1.000000 -0.300196 222 222 222
0.274270 -0.899618 1.000000 124 124 124
0.658530 -1.000000 0.415655 161 161 161
0.231335 -0.925204 -1.000000 121 121 121
-0.280391 0.619799 -1.000000 181 181 181
0.142408 1.000000 -0.876326 136 136 136
0.595060 -0.400735 1.000000 174 174 174
0.047098 1.000000 -0.091692 253 253 253
-0.907912 0.971256 1.000000 22 22 22
0.178427 1.000000 0.911753 127 127 127
-0.762845 0.108917 1.000000 163 163 163
1.000000 -0.942044 -0.826894 43 43 43
-1.000000 -0.801645 0.971481 41 41 41
0.482979 0.347285 1.000000 197 197 197
-0.667581 -0.619156 -1.000000 131 131 131
0.637254 -0.752940 -1.000000 113 113 113
0.335712 -0.221946 1.000000 227 227 227
-0.065800 1.000000 0.859107 142 142 142
-0.243276 -1.000000 -0.059072 244 244 244
0.587782 -0.288743 -1.000000 186 186 186
0.566634 0.899078 1.000000 94 94 94
-1.000000 0.906846 -0.290055 121 121 121
0.650495 -0.323881 1.000000 172 172 172
0.833769 -0.700912 1.000000 87 87 87
0.490216 -1.000000 -0.169962 210 210 210
-0.495492 -1.000000 -0.202889 207 207 207
-0.470214 1.000000 -0.679558 150 150 150
0.385780 -0.737845 1.000000 149 149 149
0.153886 -0.773025 1.000000 159 159 159
0.685721 -0.810745 -1.000000 94 94 94
1.000000 -0.336544 -0.610107 178 178 178
-0.661394 -1.000000 -0.983632 62 62 62
-0.286088 -0.312593 1.000000 224 224 224
0.191248 0.762750 1.000000 159 159 159
1.000000 -0.184932 -0.222513 240 240 240
1.000000 0.982530 -0.862006 28 28 28
-0.548079 -1.000000 -0.974981 79 79 79
-0.965072 -0.488910 1.000000 89 89 89
-0.336755 -1.000000 0.564907 186 186 186
1.000000 0.912701 0.604279 85 85 85
0.705204 0.768146 -1.000000 99 99 99
0.786582 -1.000000 -0.801179 78 78 78
1.000000 -0.331682 0.744773 153 153 153
0.338910 -1.000000 -0.185101 229 229 229
0.755680 -1.000000 -0.469255 136 136 136
1.000000 0.741544 0.378717 149 149 149
-1.000000 -0.295328 -0.161665 235 235 235
-0.061007 -0.432949 -1.000000 222 222 222
1.000000 -0.622727 0.783232 109 109 109
-1.000000 0.991186 0.904451 19 19 19
0.806381 -1.000000 0.914972 52 52 52
0.222527 1.000000 -0.939300 118 118 118
0.679747 -0.658593 1.000000 122 122 122
0.848485 0.939877 1.000000 40 40 40
-1.000000 -0.411723 -0.664387 160 160 160
-1.000000 -0.659581 -0.681954 122 122 122
0.377442 -1.000000 -0.617966 172 172 172
-0.825949 0.616722 -1.000000 102 102 102
0.876765 1.000000 -0.753470 69 69 69
0.647324 1.000000 0.117372 185 185 185
1.000000 -0.258702 0.650973 177 177 177
1.000000 0.032034 -0.267642 242 242 242
1.000000 0.102530 -0.989819 111 111 111
-0.040213 1.000000 0.578986 200 200 200
0.974263 0.441609 -1.000000 92 92 92
-0.028472 0.538400 1.000000 207 207 207
0.895755 -1.000000 -0.977489 23 23 23
1.000000 0.863489 0.520148 107 107 107
-0.344624 0.477148 -1.000000 198 198 198
-0.143570 0.542331 1.000000 203 203 203
1.000000 0.240716 -0.884940 129 129 129
0.353595 -0.489114 -1.000000 196 196 196
1.000000 -0.714606 -0.269592 164 164 164
-0.704544 -0.025845 -1.000000 176 176 176
0.044226 0.365564 1.000000 232 232 232
-1.000000 0.627285 -0.828919 100 100 100
-0.001282 -0.886185 1.000000 137 137 137
-0.919689 1.000000 -0.262782 120 120 120
-1.000000 0.135579 0.476319 214 214 214
-0.977356 0.470090 1.000000 88 88 88
-1.000000 0.332591 -0.186706 230 230 230
-0.373516 -1.000000 0.652757 166 166 166
-0.739467 -0.206974 -1.000000 163 163 163
-0.848261 0.842597 -1.000000 59 59 59
-0.983459 1.000000 0.935534 14 14 14
0.544034 0.405188 -1.000000 182 182 182
-0.447668 -0.566061 -1.000000 173 173 173
-0.036677 -1.000000 0.341088 234 234 234
1.000000 0.683694 0.697993 115 115 115
-1.000000 -0.577831 0.215362 193 193 193
-1.000000 0.163995 -0.955965 117 117 117
-1.000000 -0.569250 0.012746 202 202 202
0.567786 1.000000 -0.613212 148 148 148
-1.000000 0.562723 0.246585 194 194 194
-0.631895 1.000000 0.952670 73 73 73
0.632451 -1.000000 -0.421299 165 165 165
0.117992 -0.471557 -1.000000 215 215 215
0.013829 0.851731 -1.000000 145 145 145
1.000000 -0.367201 -0.645350 168 168 168
1.000000 -0.328437 0.073287 235 235 235
-1.000000 -0.135660 0.958799 117 117 117
-0.868288 -0.529985 1.000000 105 105 105
-1.000000 -0.663968 0.593018 136 136 136
-1.000000 -0.229525 -0.120838 243 243 243
-1.000000 0.182462 -0.721343 168 168 168
-1.000000 0.031085 0.517554 210 210 210
-0.214627 0.828345 -1.000000 144 144 144
0.565853 -0.142106 1.000000 199 199 199
-0.433003 0.890167 -1.000000 112 112 112
-0.688655 0.193554 -1.000000 174 174 174
0.466517 -1.000000 -0.465468 185 185 185
0.169664 1.000000 0.931412 122 122 122
-0.668549 0.118995 -1.000000 181 181 181
-0.419534 -0.153598 -1.000000 221 221 221
-0.227519 0.458214 1.000000 211 211 211
0.508627 0.681503 1.000000 145 145 145
0.933513 0.710814 -1.000000 65 65 65
1.000000 0.782919 -0.986117 42 42 42
0.928904 -0.488511 -1.000000 97 97 97
1.000000 -0.810481 -0.070423 153 153 153
1.000000 -0.759213 0.594731 118 118 118
0.319938 0.042047 1.000000 237 237 237
1.000000 -0.815405 -0.381057 134 134 134
-0.341051 -1.000000 0.010584 235 235 235
0.088532 -1.000000 -0.720108 172 172 172
1.000000 0.906920 -0.919248 33 33 33
1.000000 -0.528608 0.655599 147 147 147
0.398563 -1.000000 -0.902838 113 113 113
-0.659567 -1.000000 0.531196 146 146 146
-1.000000 -0.699969 0.958972 61 61 61
0.491811 -1.000000 -0.594330 162 162 162
1.000000 0.366998 -0.286630 218 218 218
0.609675 -0.749170 1.000000 118 118 118
-0.305091 1.000000 -0.316775 222 222 222
-0.631501 -1.000000 -0.399611 167 167 167
0.463997 0.559237 1.000000 172 172 172
-0.849015 0.562512 1.000000 105 105 105
-1.000000 -0.955965 -0.451479 95 95 95
1.000000 -0.887272 -0.212959 131 131 131
-0.836413 0.977464 1.000000 34 34 34
-0.396988 -1.000000 0.121024 226 226 226
-0.773624 -1.000000 -0.009482 162 162 162
-1.000000 0.328534 0.408687 209 209 209
0.926258 1.000000 0.893981 34 34 34
0.508919 -1.000000 -0.756693 131 131 131
-0.272822 -0.770285 1.000000 152 152 152
0.941573 -1.000000 0.423670 101 101 101
-1.000000 -0.144191 -0.271499 238 238 238
-0.936551 0.698760 1.000000 66 66 66
-0.258927 -1.000000 0.035176 243 243 243
0.691935 -0.067471 -1.000000 178 178 178
0.601345 0.425374 1.000000 170 170 170
-1.000000 -0.023131 0.984630 113 113 113
-0.858844 -0.653320 1.000000 89 89 89
0.416828 1.000000 0.442242 195 195 195
-1.000000 -0.877219 0.710743 76 76 76
0.991511 1.000000 -0.904526 18 18 18
0.203798 1.000000 -0.246180 237 237 237
0.803403 1.000000 0.794188 76 76 76
-1.000000 0.902098 0.597785 89 89 89
0.611621 0.641750 -1.000000 137 137 137
-0.826684 -1.000000 -0.836194 64 64 64
-1.000000 0.253445 0.193363 237 237 237
1.000000 -0.043078 -0.034243 254 254 254
-1.000000 0.982572 -0.349501 99 99 99
0.760659 0.204524 1.000000 159 159 159
-1.000000 -0.598377 -0.192714 191 191 191
0.250956 0.822682 1.000000 143 143 143
0.396740 0.843606 -1.000000 126 126 126
-0.831380 1.000000 0.410276 127 127 127
1.000000 -0.238812 0.858648 136 136 136
-0.539270 -0.835665 1.000000 111 111 111
0.011601 1.000000 -0.939906 124 124 124
-0.325467 0.529874 1.000000 192 192 192
-0.193575 -1.000000 0.329694 230 230 230
1.000000 -0.923167 -0.219363 122 122 122
-0.898181 1.000000 0.480843 105 105 105
0.088135 -0.805645 1.000000 154 154 154
-1.000000 0.686011 -0.621990 127 127 127
0.487359 0.097562 1.000000 214 214 214
-0.779282 0.581232 -1.000000 116 116 116
0.159251 1.000000 -0.891084 132 132 132
0.187633 1.000000 -0.890881 131 131 131
-0.679262 0.922493 -1.000000 72 72 72
-0.433696 0.470443 1.000000 189 189 189
0.785613 -1.000000 -0.423284 135 135 135
-0.379534 -0.491634 1.000000 192 192 192
-0.262516 -0.247409 -1.000000 232 232 232
1.000000 0.617828 -0.762529 114 114 114
-0.323910 1.000000 0.720783 158 158 158
-0.232058 0.703409 1.000000 169 169 169
1.000000 0.764790 -0.901487 62 62 62
-1.000000 0.747938 -0.889387 68 68 68
0.666507 -1.000000 0.151208 181 181 181
-0.960394 0.961471 -1.000000 14 14 14
0.525168 -1.000000 0.484583 174 174 174
0.812827 -1.000000 -0.178607 149 149 149
0.666724 -0.832578 -1.000000 93 93 93
0.763641 -0.805835 1.000000 81 81 81
-1.000000 0.985769 0.135483 111 111 111
-0.139583 1.000000 0.199155 244 244 244
1.000000 -0.512782 -0.336195 194 194 194
1.000000 -0.634457 0.173766 186 186 186
0.679342 -1.000000 0.014573 181 181 181
-0.844984 -1.000000 -0.489153 115 115 115
1.000000 0.336966 -0.790816 143 143 143
-0.042658 -1.000000 -0.360955 232 232 232
0.891776 -1.000000 0.662186 81 81 81
-0.715366 0.233799 1.000000 166 166 166
-1.000000 -0.882138 0.207457 132 132 132
-0.200769 -0.522297 1.000000 203 203 203
0.237591 -1.000000 0.489733 206 206 206
1.000000 0.558059 -0.054081 203 203 203
-0.447240 -1.000000 -0.761349 137 137 137
-0.299532 1.000000 0.784944 147 147 147
-0.049614 -0.634627 -1.000000 190 190 190
0.844921 -0.350500 -1.000000 130 130 130
-0.178685 0.700184 -1.000000 173 173 173
0.479797 -0.577403 1.000000 167 167 167
-0.241087 -0.526466 1.000000 200 200 200
-0.473294 -1.000000 -0.333330 200 200 200
1.000000 -0.043812 0.105318 252 252 252
0.641108 -1.000000 -0.859028 91 91 91
0.261304 -0.408208 -1.000000 216 216 216
0.949477 1.000000 0.144263 119 119 119
-0.097177 1.000000 -0.743180 167 167 167
-0.403963 -0.995552 1.000000 91 91 91
0.002721 0.689738 -1.000000 179 179 179
-1.000000 -0.317540 -0.032156 237 237 237
-0.546114 0.952099 -1.000000 85 85 85
1.000000 0.447754 0.339734 203 203 203
0.796670 -0.503213 -1.000000 123 123 123
0.258145 0.472019 1.000000 207 207 207
-1.000000 -0.001264 -0.306244 238 238 238
-0.005292 -0.586354 1.000000 199 199 199
-0.635755 -1.000000 0.598777 140 140 140
0.908323 1.000000 -0.403547 111 111 111
-0.823474 0.573128 1.000000 109 109 109
0.381613 -0.322110 -1.000000 213 213 213
1.000000 0.670085 -0.474384 152 152 152
-1.000000 0.958998 0.035100 119 119 119
-0.512006 1.000000 -0.435567 183 183 183
1.000000 0.542121 -0.545634 163 163 163
-0.358990 -1.000000 0.239511 223 223 223
-0.542232 -0.532475 -1.000000 165 165 165
-1.000000 0.799145 0.023166 156 156 156
-1.000000 0.223734 -0.868796 134 134 134
-0.341874 -1.000000 0.518255 192 192 192
0.917379 -1.000000 -0.647820 78 78 78
1.000000 0.843766 -0.864578 55 55 55
1.000000 0.453964 0.427281 192 192 192
0.596051 1.000000 0.731196 123 123 123
-1.000000 0.277155 -0.761520 154 154 154
1.000000 0.822960 -0.591112 106 106 106
-1.000000 0.992643 -0.836842 31 31 31
1.000000 0.719309 0.129509 171 171 171
1.000000 -0.467348 0.292120 205 205 205
-0.042607 -0.304209 -1.000000 238 238 238
1.000000 0.385364 0.310521 214 214 214
1.000000 0.603701 -0.136044 193 193 193
1.000000 0.373713 0.278302 218 218 218
-0.781920 -0.020537 -1.000000 160 160 160
-0.969845 0.595287 1.000000 74 74 74
-0.878414 0.714039 1.000000 76 76 76
-0.902023 -1.000000 -0.104034 132 132 132
0.710490 -1.000000 -0.372357 156 156 156
-1.000000 -0.306049 -0.049684 238 238 238
0.113139 -0.432026 -1.000000 221 221 221
-0.723231 1.000000 0.327324 158 158 158
0.231656 -0.136389 1.000000 242 242 242
0.458728 -1.000000 -0.855330 117 117 117
0.678054 -0.838976 1.000000 90 90 90
-0.338899 -1.000000 -0.007230 235 235 235
1.000000 -0.221955 0.496779 206 206 206
0.995607 1.000000 -0.469593 84 84 84
1.000000 0.382698 -0.902988 114 114 114
0.773537 0.992439 -1.000000 42 42 42
0.351259 -0.324824 1.000000 216 216 216
0.158999 -1.000000 0.754899 162 162 162
-0.455486 0.834279 1.000000 121 121 121
-0.262041 -0.034643 -1.000000 242 242 242
0.455672 -1.000000 -0.740441 141 141 141
0.324556 0.442527 1.000000 205 205 205
-0.811663 0.558729 1.000000 113 113 113
-1.000000 0.419821 0.038737 225 225 225
-0.863062 0.103994 -1.000000 141 141 141
-0.126519 -0.034575 1.000000 252 252 252
0.395229 0.274649 -1.000000 216 216 216
-0.767103 0.728765 1.000000 95 95 95
0.926348 0.716961 1.000000 65 65 65
0.784656 -0.992044 1.000000 40 40 40
0.268042 -1.000000 -0.691691 169 169 169
-0.321995 1.000000 0.383616 213 213 213
-0.028106 -1.000000 0.412853 226 226 226
0.393764 1.000000 0.628753 169 169 169
-0.449073 0.155134 1.000000 217 217 217
-1.000000 -0.339262 0.915529 115 115 115
-0.468736 -0.121647 1.000000 216 216 216
-0.728218 -1.000000 0.377924 152 152 152
0.695400 -0.971861 1.000000 59 59 59
-1.000000 -0.959699 -0.424960 97 97 97
0.908972 -1.000000 0.746796 64 64 64
1.000000 0.937172 0.855718 39 39 39
1.000000 -0.366631 -0.571839 181 181 181
-0.732519 -1.000000 0.006837 171 171 171
-0.493212 0.519341 -1.000000 174 174 174
-1.000000 -0.271316 0.927026 118 118 118
1.000000 0.553210 0.960518 82 82 82
0.936810 -0.151354 -1.000000 122 122 122
-0.660819 -0.121150 -1.000000 183 183 183
1.000000 -0.487945 0.767106 131 131 131
0.358119 -1.000000 -0.432137 203 203 203
-1.000000 -0.095197 -0.339233 233 233 233
1.000000 0.061333 0.286322 240 240 240
0.813742 0.249444 1.000000 145 145 145
0.986779 -0.841383 -1.000000 31 31 31
-0.549303 -1.000000 0.747205 127 127 127
-1.000000 0.195117 -0.090475 247 247 247
-0.054216 1.000000 0.963781 118 118 118
0.854496 -0.397901 -1.000000 123 123 123
0.046292 1.000000 -0.091183 253 253 253
-0.319773 0.527424 -1.000000 193 193 193
0.644729 -0.067311 -1.000000 187 187 187
1.000000 0.110659 0.906103 130 130 130
-1.000000 -0.992896 -0.320955 99 99 99
0.299262 -1.000000 -0.208051 232 232 232
0.702995 -1.000000 0.778877 97 97 97
0.167798 1.000000 -0.877620 135 135 135
-0.795673 -1.000000 0.517899 122 122 122
0.090772 0.187208 -1.000000 247 247 247
-1.000000 -0.761110 0.659581 108 108 108
-0.741026 -0.242457 -1.000000 161 161 161
0.941761 0.853884 1.000000 38 38 38
1.000000 0.757813 0.606863 117 117 117
0.628285 -0.595119 -1.000000 142 142 142
1.000000 0.801784 0.204617 150 150 150
0.546161 -0.931569 -1.000000 89 89 89
-0.157750 1.000000 0.145985 247 247 247
0.115156 1.000000 -0.812970 152 152 152
0.122836 0.586110 1.000000 196 196 196
1.000000 0.276277 -0.849418 135 135 135
-0.067923 -0.054559 1.000000 253 253 253
-0.754629 0.076178 1.000000 165 165 165
-1.000000 -0.434326 -0.807636 130 130 130
1.000000 -0.914209 0.885019 38 38 38
0.701456 1.000000 -0.597038 129 129 129
1.000000 -0.303506 -0.565999 188 188 188
0.086898 1.000000 0.152843 249 249 249
0.517011 1.000000 -0.068058 210 210 210
1.000000 -0.386488 -0.620422 171 171 171
0.875730 -0.027119 -1.000000 139 139 139
0.130744 -0.642753 1.000000 186 186 186
1.000000 -0.740129 -0.628085 117 117 117
-1.000000 -0.172665 0.443894 217 217 217
0.810115 -1.000000 -0.824803 69 69 69
1.000000 0.118431 -0.698192 176 176 176
1.000000 -0.137873 0.422178 222 222 222
-0.259903 -1.000000 -0.789042 149 149 149
0.432669 -1.000000 -0.694007 152 152 152
-0.781236 1.000000 0.780830 83 83 83
0.671363 1.000000 -0.748698 108 108 108
-0.060058 -1.000000 0.525670 208 208 208
-0.439100 1.000000 0.885303 112 112 112
-1.000000 -0.861451 -0.118983 141 141 141
-1.000000 0.398831 -0.127694 225 225 225
-0.313932 0.215173 -1.000000 230 230 230
1.000000 0.043286 -0.757409 165 165 165
-0.012876 1.000000 -0.855318 144 144 144
-0.870314 0.468603 1.000000 112 112 112
-0.595639 0.152074 1.000000 194 194 194
0.184724 1.000000 -0.756959 161 161 161
-0.655545 -0.363254 -1.000000 167 167 167
-0.619807 0.613409 1.000000 140 140 140
-0.247576 -0.766737 -1.000000 155 155 155
-1.000000 0.883125 -0.912112 39 39 39
0.825151 -1.000000 -0.503111 118 118 118
0.094214 -1.000000 0.579421 199 199 199
-0.655294 -1.000000 -0.670466 125 125 125
-1.000000 0.707844 0.684917 113 113 113
-0.699476 1.000000 -0.162726 174 174 174
-0.338755 0.481067 1.000000 198 198 198
-0.676413 -0.343769 1.000000 165 165 165
-0.140215 0.940666 -1.000000 121 121 121
-0.631268 -1.000000 -0.083969 190 190 190
-0.115937 -0.724607 -1.000000 170 170 170
-0.451217 -1.000000 0.917838 104 104 104
1.000000 0.077724 -0.470014 217 217 217
1.000000 0.048297 -0.235457 245 245 245
1.000000 -0.189878 -0.281630 235 235 235
-0.517823 1.000000 0.861403 108 108 108
-1.000000 -0.247875 -0.631894 181 181 181
0.077152 -0.594371 1.000000 196 196 196
0.855113 0.739911 1.000000 76 76 76
-1.000000 -0.678210 0.364338 163 163 163
-0.963898 1.000000 0.434443 95 95 95
0.749330 1.000000 0.801302 85 85 85
-0.224724 -1.000000 0.883647 131 131 131
-0.796728 0.193276 1.000000 152 152 152
-1.000000 0.586078 0.114247 197 197 197
-1.000000 -0.891209 -0.734806 70 70 70
-0.706953 1.000000 0.726378 106 106 106
1.000000 0.889511 0.003073 136 136 136
-0.472217 1.000000 -0.701500 146 146 146
-0.098053 0.748732 -1.000000 166 166 166
0.826729 -1.000000 0.399816 129 129 129
0.133320 -0.941693 1.000000 121 121 121
-1.000000 0.742193 0.066584 168 168 168
-1.000000 -0.346450 0.329921 216 216 216
-0.122479 -0.187633 -1.000000 246 246 246
0.808175 1.000000 -0.725512 88 88 88
-0.284349 -1.000000 -0.001383 241 241 241
-0.375661 -0.378084 -1.000000 208 208 208
0.583165 0.757325 -1.000000 120 120 120
0.280096 1.000000 0.891562 125 125 125
0.167448 -1.000000 -0.381436 225 225 225
1.000000 0.328518 0.740186 154 154 154
1.000000 -0.125053 0.191433 245 245 245
-1.000000 0.717085 -0.552128 132 132 132
-0.665410 -1.000000 0.412296 160 160 160
1.000000 -0.352825 0.368377 212 212 212
0.683938 0.652165 -1.000000 123 123 123
-0.113307 -1.000000 -0.189718 246 246 246
0.833925 0.358763 1.000000 132 132 132
0.721028 1.000000 0.179662 168 168 168
-1.000000 0.160033 -0.307836 234 234 234
0.898037 0.551423 -1.000000 96 96 96
0.826699 0.461360 -1.000000 122 122 122
0.370454 -0.240840 1.000000 222 222 222
-0.215626 0.096522 1.000000 245 245 245
0.866033 -0.458551 -1.000000 114 114 114
-0.015030 1.000000 -0.752890 166 166 166
0.004600 0.780476 1.000000 160 160 160
1.000000 0.211829 -0.845206 140 140 140
1.000000 -0.370614 -0.063410 231 231 231
-0.657119 1.000000 0.039881 185 185 185
0.113279 -0.131206 1.000000 249 249 249
-1.000000 -0.226602 -0.323513 228 228 228
1.000000 -0.754931 0.626939 114 114 114
-0.623115 -0.071994 1.000000 191 191 191
-0.732384 1.000000 0.500755 137 137 137
1.000000 -0.794009 0.797771 77 77 77
1.000000 -0.318525 -0.489580 199 199 199
0.045417 -1.000000 0.031963 254 254 254
0.250340 1.000000 0.858193 135 135 135
0.634132 0.088311 -1.000000 189 189 189
0.077308 0.643907 1.000000 187 187 187
1.000000 -0.745085 0.563270 125 125 125
0.499735 0.629596 1.000000 155 155 155
-1.000000 -0.230844 0.172835 240 240 240
-0.047880 1.000000 -0.759508 165 165 165
1.000000 0.955404 0.246961 113 113 113
-0.346688 -1.000000 -0.911275 116 116 116
-1.000000 0.388111 0.735011 149 149 149
-0.249610 1.000000 -0.367243 222 222 222
0.734267 -0.540201 1.000000 131 131 131
-0.870029 0.933468 1.000000 37 37 37
-1.000000 0.031582 0.396629 228 228 228
-0.108018 0.827270 -1.000000 149 149 149
1.000000 0.514281 -0.505971 173 173 173
-0.690957 -1.000000 -0.634422 124 124 124
-0.735788 -1.000000 -0.523924 133 133 133
1.000000 0.741150 0.654116 112 112 112
1.000000 0.092946 -0.829006 149 149 149
1.000000 0.791688 -0.114281 156 156 156
0.315432 -0.944744 -1.000000 110 110 110
1.000000 0.543545 -0.492716 170 170 170
-0.005388 1.000000 0.519099 210 210 210
0.477350 0.469036 1.000000 183 183 183
-0.327221 0.180886 1.000000 231 231 231
-0.227977 0.270085 -1.000000 233 233 233
-0.943260 -1.000000 0.976740 14 14 14
0.559794 0.862214 -1.000000 102 102 102
-1.000000 0.329789 -0.888479 122 122 122
-1.000000 -0.719815 -0.873999 76 76 76
-0.101733 -0.579506 -1.000000 198 198 198
-1.000000 0.426964 -0.709431 150 150 150
0.945073 -0.549800 1.000000 86 86 86
-0.950080 0.961269 -1.000000 16 16 16
1.000000 0.366635 0.641511 169 169 169
0.338528 -1.000000 -0.913422 116 116 116
-0.739234 1.000000 0.476837 138 138 138
0.683757 -1.000000 0.288699 169 169 169
-0.040011 1.000000 0.149415 250 250 250
-0.138348 1.000000 -0.534451 205 205 205
0.696100 -1.000000 -0.741045 105 105 105
0.720973 1.000000 -0.162354 169 169 169
0.768592 0.602844 -1.000000 115 115 115
-0.338994 0.170288 -1.000000 230 230 230
-0.704024 0.390055 -1.000000 155 155 155
1.000000 -0.074735 0.511260 211 211 211
-0.873727 0.653464 -1.000000 86 86 86
-0.627736 0.669876 1.000000 129 129 129
1.000000 -0.890271 -0.409822 114 114 114
-0.288059 -1.000000 0.488593 202 202 202
-1.000000 0.909305 -0.047445 131 131 131
-1.000000 -0.605723 -0.160407 191 191 191
0.915869 0.156886 -1.000000 127 127 127
-0.995605 1.000000 0.761305 43 43 43
0.373369 0.667861 -1.000000 164 164 164
1.000000 0.925959 0.896747 33 33 33
-0.130597 -0.649105 1.000000 185 185 185
-0.947493 0.007350 1.000000 122 122 122
-0.495428 1.000000 -0.740261 136 136 136
-0.382838 -1.000000 -0.946624 104 104 104
0.376953 -0.565033 1.000000 181 181 181
0.421643 0.569702 1.000000 175 175 175
0.611444 0.979083 -1.000000 70 70 70
-0.374762 -1.000000 -0.286029 218 218 218
-0.310687 0.716288 1.000000 160 160 160
1.000000 0.000116 -0.867310 141 141 141
0.424904 -0.949868 1.000000 99 99 99
0.733910 0.243461 -1.000000 162 162 162
-0.591442 0.716135 -1.000000 127 127 127
-1.000000 0.485829 0.145174 212 212 212
-1.000000 0.006838 0.502144 213 213 213
1.000000 -0.830077 0.254012 141 141 141
-1.000000 0.354549 0.161701 229 229 229
0.394690 -1.000000 -0.115588 226 226 226
-0.653404 -1.000000 0.141574 183 183 183
0.511051 1.000000 0.486063 176 176 176
-1.000000 0.346677 0.088152 233 233 233
0.052793 0.129163 -1.000000 251 251 251
1.000000 -0.986949 0.855674 29 29 29
-0.283086 -0.772620 -1.000000 151 151 151
1.000000 -0.877735 0.516152 105 105 105
-0.734133 -1.000000 0.525003 133 133 133
0.318335 -1.000000 0.009005 237 237 237
0.780419 -0.195687 1.000000 155 155 155
-0.234394 0.032090 1.000000 245 245 245
0.125945 0.935683 1.000000 123 123 123
1.000000 0.147554 0.599910 193 193 193
-1.000000 0.277678 -0.418185 213 213 213
-0.134017 -0.439342 -1.000000 219 219 219
-0.216051 1.000000 -0.503161 205 205 205
-0.040254 1.000000 0.050949 254 254 254
0.645520 1.000000 0.695511 122 122 122
-0.019959 1.000000 -0.800267 156 156 156
1.000000 0.617335 -0.812637 104 104 104
-1.000000 -0.034605 0.471050 217 217 217
0.582012 0.963540 1.000000 77 77 77
-1.000000 0.326718 -0.998695 97 97 97
-0.560907 0.556951 -1.000000 158 158 158
-0.375402 0.350805 1.000000 211 211 211
0.760759 -1.000000 0.399946 143 143 143
-1.000000 0.583969 -0.498786 163 163 163
1.000000 0.191623 -0.114944 246 246 246
-0.254996 0.321341 1.000000 226 226 226
0.984975 -0.595236 -1.000000 71 71 71
-1.000000 0.186454 -0.070091 248 248 248
-0.095702 0.750121 -1.000000 166 166 166
0.402314 -1.000000 -0.002239 227 227 227
-1.000000 -0.673538 -0.850858 88 88 88
-0.236717 -1.000000 0.788274 151 151 151
0.707166 0.236181 1.000000 168 168 168
-1.000000 0.405404 0.955754 100 100 100
0.875391 0.616913 1.000000 92 92 92
0.786029 -0.932940 1.000000 52 52 52
1.000000 0.711541 -0.237877 167 167 167
-0.261972 -0.511598 -1.000000 201 201 201
-0.978735 -1.000000 -0.874671 27 27 27
0.020165 -0.509351 -1.000000 212 212 212
1.000000 0.586936 -0.335137 182 182 182
0.769972 -0.299377 -1.000000 150 150 150
0.861130 1.000000 0.563524 102 102 102
0.940653 0.563599 -1.000000 85 85 85
0.084295 -1.000000 0.698605 176 176 176
1.000000 0.432548 -0.912046 107 107 107
0.080387 -1.000000 0.571528 200 200 200
-0.442041 -1.000000 -0.527407 180 180 180
1.000000 -0.065620 -0.832833 148 148 148
0.975263 0.758990 1.000000 48 48 48
-1.000000 0.199667 -0.594605 191 191 191
0.113920 -0.398401 -1.000000 226 226 226
0.128507 1.000000 0.137927 248 248 248
1.000000 -0.285581 -0.153271 237 237 237
0.474103 -0.508100 -1.000000 178 178 178
0.752126 -0.683859 1.000000 105 105 105
0.273103 -0.677513 1.000000 171 171 171
0.548865 -0.927477 1.000000 90 90 90
-0.163445 -1.000000 0.230644 241 241 241
0.920381 -1.000000 -0.589736 86 86 86
-1.000000 -0.665232 0.098521 183 183 183
0.911828 0.821570 -1.000000 50 50 50
1.000000 -0.128223 -0.258066 240 240 240
-0.108071 0.432683 1.000000 221 221 221
-1.000000 0.742794 -0.892777 68 68 68
-0.483116 -1.000000 -0.450210 185 185 185
0.228447 1.000000 0.462544 211 211 211
-0.697075 1.000000 0.450409 150 150 150
0.712246 -0.449041 1.000000 147 147 147
-0.842861 -1.000000 -0.505434 114 114 114
0.484924 1.000000 -0.370039 194 194 194
-0.943863 0.260445 -1.000000 115 115 115
-1.000000 0.774526 0.881955 65 65 65
-0.307786 1.000000 0.395527 213 213 213
0.671044 -0.545776 1.000000 142 142 142
1.000000 -0.842040 -0.392550 127 127 127
1.000000 0.757608 -0.210576 159 159 159
0.333205 -0.064139 -1.000000 235 235 235
1.000000 -0.009269 0.049557 254 254 254
0.475966 -1.000000 0.938128 96 96 96
-0.592113 -0.738126 -1.000000 123 123 123
-0.810636 -0.773284 -1.000000 79 79 79
1.000000 0.908098 -0.616126 85 85 85
1.000000 -0.204524 -0.805369 149 149 149
-1.000000 -0.839784 0.520717 112 112 112
0.410260 0.382344 -1.000000 203 203 203
-1.000000 0.952466 -0.687122 64 64 64
-0.485044 -0.341831 -1.000000 197 197 197
0.521808 -1.000000 0.004306 210 210 210
-0.136182 -0.040833 -1.000000 251 251 251
-0.954490 0.799174 1.000000 45 45 45
1.000000 -0.091888 -0.735256 169 169 169
1.000000 0.059731 0.293909 239 239 239
0.807121 -0.743543 1.000000 85 85 85
0.593345 -1.000000 0.086366 196 196 196
-0.584466 0.982349 -1.000000 73 73 73
0.773815 1.000000 0.028797 162 162 162
0.333453 1.000000 0.729295 156 156 156
-0.418066 1.000000 -0.359300 205 205 205
0.096710 -1.000000 0.835094 147 147 147
-1.000000 -0.510341 0.131328 209 209 209
-0.811785 -1.000000 -0.165837 150 150 150
-1.000000 -0.137383 0.795469 155 155 155
1.000000 -0.989023 -0.164950 109 109 109
-0.982090 -1.000000 0.734272 51 51 51
-0.168977 1.000000 0.521753 205 205 205
0.361687 -1.000000 0.877503 122 122 122
0.512335 -1.000000 0.274451 200 200 200
0.897211 -1.000000 0.639076 84 84 84
0.522016 -1.000000 -0.659558 147 147 147
-0.567565 -1.000000 0.668820 139 139 139
0.667118 -1.000000 0.558049 141 141 141
0.824044 -0.611555 -1.000000 103 103 103
1.000000 0.467346 0.461548 186 186 186
1.000000 0.164000 0.968668 114 114 114
-0.689874 1.000000 -0.238266 171 171 171
0.840095 -0.625414 1.000000 98 98 98
1.000000 0.138102 0.723532 170 170 170
0.043677 0.077890 1.000000 253 253 253
-0.706299 -0.817756 -1.000000 89 89 89
0.645080 -1.000000 -0.572052 142 142 142
0.343473 -1.000000 0.964964 103 103 103
-0.998214 -0.173759 -1.000000 106 106 106
0.804613 -0.778580 -1.000000 79 79 79
0.500904 1.000000 0.365328 193 193 193
-0.428626 -1.000000 0.639113 163 163 163
-0.616941 -0.413092 1.000000 169 169 169
0.490483 -0.091420 1.000000 213 213 213
0.702604 -0.161325 1.000000 173 173 173
-1.000000 -0.682289 0.468581 150 150 150
-0.487973 -0.821046 1.000000 120 120 120
0.419389 -0.692727 1.000000 154 154 154
0.679473 1.000000 0.416431 157 157 157
-0.993005 0.975731 1.000000 4 4 4
-0.684637 -0.625831 -1.000000 127 127 127
1.000000 -0.507985 0.739092 134 134 134
-1.000000 0.486085 -0.641971 155 155 155
0.461609 -0.438762 -1.000000 189 189 189
0.305374 0.763882 -1.000000 151 151 151
-0.870431 -1.000000 -0.888085 46 46 46
-1.000000 0.447877 0.865913 116 116 116
1.000000 0.328003 -0.019802 236 236 236
1.000000 -0.215791 0.941542 118 118 118
-0.890722 0.418170 1.000000 113 113 113
-0.772089 1.000000 -0.115176 160 160 160
0.399142 -0.168360 1.000000 223 223 223
-1.000000 -0.221959 -0.383399 222 222 222
0.019348 1.000000 0.217151 246 246 246
1.000000 0.327781 -0.838017 134 134 134
1.000000 0.882183 0.854492 50 50 50
-1.000000 0.980229 -0.979308 6 6 6
0.420640 -1.000000 0.646507 162 162 162
-1.000000 -0.559830 0.950833 83 83 83
1.000000 -0.900094 0.010083 133 133 133
-0.493611 -1.000000 -0.093166 213 213 213
0.410236 -1.000000 -0.271911 214 214 214
0.267246 0.194723 -1.000000 236 236 236
-0.315013 -1.000000 -0.322794 221 221 221
-0.539345 0.555072 -1.000000 162 162 162
-1.000000 -0.780985 -0.005402 160 160 160
-1.000000 0.041037 -0.267514 242 242 242
-1.000000 -0.329103 -0.641758 173 173 173
-0.993831 1.000000 -0.066572 110 110 110
-0.076057 0.431325 -1.000000 222 222 222
0.749193 0.255580 1.000000 158 158 158
0.258152 0.208359 -1.000000 236 236 236
-0.911481 -0.205097 -1.000000 125 125 125
-0.907910 1.000000 -0.155987 129 129 129
